0.8263403923577073 0.23444106761811412 0.009190643451048586
0.7685122298973823 -0.0044222891351078375 0.09163830724702393
0.7679312386364501 -0.047899198926804054 0.06092182099147081
1.2296348507672406 -0.19007741189655647 0.13458086022900773
0.8173643258096064 0.21849383410540213 0.02110416140653215
0.9891819970649607 -0.20561057562753504 0.23972496554298672
0.9232209849514561 0.021314333838674537 0.24888035381874118
0.9699123964662704 -0.1460075178467246 0.22445846069544473
1.152783636344168 -0.18395443049291416 0.05192880850798165
0.8916504235523348 0.12355019672861012 0.25260280560486237
1.3405133749499498 -0.20408292498457214 0.11168475449890636
0.8099383117350101 0.2115647937188747 0.050329663686428106
0.9208535012464836 0.046925158339852224 0.2130672797816402
0.8405322732558318 0.29114357021871484 0.004523887446665764
0.7504702324790458 -0.10114417922910235 0.1443593877604421
0.7695936857626151 -0.10991601646932025 0.018208568199662434
0.7768051905306095 0.0033660440297542116 0.04091461709928135
1.4018829969689506 -0.23748538215540904 0.03888065777982952
0.9460454091071568 -0.12971394475217224 0.036946832072899394
1.136670937685409 -0.17478756288525688 0.02067224217389807
1.149932821366093 -0.18131660423829743 0.046774915087741675
0.9332435553691454 -0.13815544065855612 0.0028946147330333183
1.3488410305788534 -0.23028833363561318 0.00613167054578867
0.765647022921101 -0.044793790678372414 0.07121037031351474
0.9219950951042222 0.011179047518364849 0.2572319104446663
0.993331004547926 -0.21452631143315415 0.22875920524283444
0.9835340801021175 -0.20767617003679462 0.29037036439840236
0.9145935816932393 -0.14208130791932838 0.033310673380191336
0.9910987028261076 -0.20496017295858593 0.2403962494593337
1.0869956708757655 -0.16477125684178695 0.026166874718343003
1.1194662461627303 -0.30787735213340994 0.45242826911998435
0.9882228731844833 -0.14490731169216176 0.7019584045244187
1.0013265305515517 -0.15458034073674298 0.7053989487623369
1.0087265019627267 -0.1545869156525903 0.7087394771793853
0.9884000318290731 -0.13869015050858913 0.7050244998089994
0.8135842846139951 -0.03777799674015592 0.6300796254816987
0.9724210588203164 -0.12736920554436537 0.6473914003243664
1.0279152332381614 -0.15877234217268388 0.661912412514809
0.8752120202674973 0.21255259451244513 0.16032225543787249
0.9731035650685982 -0.12602288979547183 0.6475517254710539
0.9866916673752968 -0.15304008638701738 0.7006337838561549
0.9825818095541194 -0.14816668166099056 0.6981667126635926
1.0096310561833377 -0.15295510506427412 0.7097613090520483
1.0006498496358773 -0.15560069485959005 0.7053239476050166
0.8180595107229749 -0.03715214559939728 0.6201622537175666
1.1269798115597496 -0.30782083355711976 0.4216100751271057
0.9744199189045588 -0.13760089897766115 0.6722510928931058
0.8912829135981326 0.12261640876164215 0.28109973305367575
0.8917487688734127 -0.08820811261198269 0.5932729039017559
1.1091273944511215 -0.08737823294456604 0.7443548325744587
0.8020372760529426 -0.04045445062537567 0.631797755934258
1.1270090238894426 -0.3095834035874745 0.4226883613260668
0.9369305625763502 -0.1529931731845302 0.4782523540685446
0.8279305368262158 -0.04326174426512397 0.6302888662889572
0.9214470855058465 -0.09737160174089432 0.6007080414752153
1.013897426985011 -0.14493036673095538 0.6236739012799575
1.0003156640108557 -0.15832952051953342 0.7012431307802203
0.8982291943991783 0.07916991096745818 0.24916440303334397
1.1051714796107603 -0.3017456541475205 0.5532402758904809
1.1054815929054485 -0.30213061868288094 0.5468254710232046
0.845684265947142 0.06491588426457806 0.530767042191016
1.250788946464425 0.0823785716301062 0.2583397516399444
1.1144370994561115 -0.0935755622972767 0.7402698180835188
0.9861347484446981 -0.14123558527471936 0.6648953254764223
1.2230443435885263 -0.2695096127479957 0.5704357154143125
1.2050558021635283 0.056428096238962944 0.7442130542587932
1.1540287155223439 -0.03222058659936744 0.737934202374575
1.1481791392512974 -0.04494160581620221 0.7391145175608216
1.2069970085882886 0.0783383661544157 0.6826428009314611
1.269283692159675 -0.029044532807656065 0.6505127506020614
1.2581746972107055 -0.059674573376065077 0.6506570132507505
1.0080391983817094 -0.3355927855129437 0.5211043145618177
1.1451055909676455 -0.22095732871507678 0.6190519710225928
1.152608619365978 -0.024041613483185564 0.6861679838254986
1.0036803075915657 -0.160074239760446 0.6959794287694976
1.0073647447990908 -0.334568747723889 0.5207071639446426
1.164742530187226 -0.014531193137090614 0.6737403220408567
1.2113662650438073 -0.2753087099419993 0.5483010363393248
1.1745785186281665 -0.2897351675608917 0.4852419393641938
1.1682662567481117 -0.2911895946296461 0.48695887048356923
1.211213007396239 -0.2750442783916185 0.5483100313382039
1.1458526042078887 -0.2987035669432814 0.4819970577685595
1.177422394607106 -0.29383134013377443 0.4295438783050898
1.2098377149009565 -0.27622313724471326 0.547929971218899
1.10692421939234 -0.16828613832044148 0.585250050234869
1.17090735975232 -0.29353833875362056 0.4617938619528772
1.105836167194596 -0.3045727822952138 0.5410018089155955
1.127666943807455 -0.31018294167942884 0.42283001114174823
1.0393804301427423 -0.34403540579418745 0.2999967265321324
1.114120475495568 -0.30403942169501263 0.5065806467050393
1.172775149852896 -0.29252147554700514 0.4884962442919871
1.2101270111982387 -0.27053962578630575 0.5780976982928365
0.8961062033304046 -0.13601286405055646 0.033080313065148026
1.0554428424744344 -0.16235513589287542 0.02057344308725173
1.2518431603330527 0.06891896395322838 0.2552066650303786
1.2542374577013504 0.03392478015783018 0.3682141769477809
1.2008336353563465 0.07985787846505943 0.6924927102040002
1.2746778644874723 -0.02413547736732191 0.6477205744500125
1.1623961204796274 -0.03804758970656019 0.6752662165173717
1.2113432207133457 0.0704406232844379 0.7534611124396662
1.2191998810676097 -0.14782028853749019 0.6044799871718354
1.2190139844241088 -0.1479046701936415 0.604406313847683
1.2275462976941753 0.13746082328678355 0.6948360359119832
1.2438060860012712 0.05124491017653998 0.4867304403453687
1.1938872688886448 -0.3069751323291747 0.28057446795246577
0.78839134875345 0.05075826467468403 0.010990724099124716
0.9420119659431236 -0.09257538267191556 0.33880712694571713
0.8142907775259545 0.2449333911439311 0.08864484657839178
0.7837941333263387 0.12021467981093714 0.09697536133193907
1.2353070970603852 -0.16655432261958758 0.10480347327309403
0.791492653033643 0.15473654317561092 0.1399700853074215
1.1390288267249105 -0.17476670305452302 0.02775743948888243
1.2656640189440793 -0.198074951066598 0.07415095323873633
1.2413323756428696 -0.285502399505031 0.32817469560402657
0.7640275804562435 0.10361821083746392 0.13990715244026397
1.1738291923882116 -0.30381930122244327 0.2764509677163218
0.8909639766378774 -0.13781177815971546 0.025763772945659458
1.2613070984870234 -0.20550244289101016 0.006407711935868532
0.8708030144835988 -0.13585903886139228 0.024972012263075882
1.1953161030439219 -0.29671447285782193 0.23614343540597105
1.105446640909804 -0.15869273643260406 0.028785956037795657
1.0590964396858027 -0.3259766605446046 0.4457010379583082
1.0389012965357836 -0.34091716093277213 0.3097007240728544
1.1874804310203757 -0.298415577062503 0.278500863710871
1.0411975912496274 -0.1633976776796242 0.05761087434156931
1.0613933340662385 -0.32489394109619596 0.4471185212816664
1.1936635932498518 -0.1831013190992259 0.09043759268831941
0.7544296596523026 0.005122311202821472 0.13109849995463385
0.7482034070948629 -0.10610153727800054 0.11955139501859335
1.1758795381327047 -0.30390982946116196 0.2310933217852984
0.915073143633478 -0.1381029698317615 0.03239170306762684
1.1849894159974639 -0.3019121044601114 0.25515359453699205
1.1902859283374312 -0.29779173105691115 0.23917920469433085
1.1871319390638035 -0.30357356641973254 0.23917890486103488
1.1085965181839441 -0.1696853211044136 0.029282078413470636
1.3538859399501746 -0.20691185213204122 0.10771375161875874
1.3455055136611804 -0.20714790660262494 0.10878255023556882
1.1649426474956215 -0.00875381444819301 0.7482029787615829
1.2219550063909423 -0.2745774593664585 0.5297931408123802
1.2075349095212573 0.15116469337072225 0.4110529876093594
1.160046712439069 -0.29215390134281094 0.5142357762510841
1.1110895035399437 -0.09511659835523822 0.6893522134286911
1.1976064867585023 0.06735723939784499 0.6865148481156069
1.2531397251714793 -0.07160496163934216 0.6403173905392379
1.286232326047596 -0.004221184986991644 0.6401684162244692
1.168282876079374 -0.13918897673809383 0.6738677083583156
1.1834780848524673 -0.1693361116895975 0.08255868042016168
1.1723850239015121 -0.3014191785215381 0.2696706232279311
1.1135417972343475 -0.21722556068011656 0.6139890288201855
0.9474976302595195 -0.08330699472274272 0.27078972958847203
0.9835614934320347 -0.18962436378634706 0.275535383913752
1.0290414070978215 -0.34162483176125136 0.3141534626846365
1.2237418415016066 0.11529936267346663 0.41815342555786117
1.0237045457628824 -0.14616579770200033 0.6278321607617698
0.9821065309466803 -0.21176199836096643 0.28589438870618267
0.9303719233936647 -0.040504003431700575 0.286280316991423
0.8058928752391381 -0.040802134102881915 0.6379584734998645
1.1081877169015542 -0.2501024100831195 0.5883144750196578
1.059229308669245 -0.33867974062825823 0.3309730397553068
0.972055433532546 -0.1498895023629654 0.29947281068075426
1.1058315411951725 -0.21111221677527325 0.6037709242601963
1.009054348255205 -0.22097906662903455 0.5688876332738957
0.8525522474246117 -0.004844630434039654 0.17021683987151093
0.9309061406604258 -0.06629464090526227 0.3242283540124724
1.1089331881419895 -0.32328781979634513 0.3377952324051492
1.1096306003884138 -0.3216855320793499 0.3376637769215307
1.0283058731894812 -0.351041139254491 0.31674562861160993
0.9799474742157344 -0.18321643366821405 0.25926790702428093
1.0727587293165897 -0.3243229300006867 0.41562064804015364
1.1456804142293464 -0.2981181638495656 0.4809566790648745
0.8311042294307214 -0.06680432002924785 0.5865106779111073
0.9579103266285927 -0.12131421134058407 0.2978555955489526
0.856399965278456 -0.03569230011465141 0.5835239099499745
1.363295222777623 -0.20545470514695907 0.21809312832200334
1.362040977267256 -0.2057334644455544 0.21777485527833207
1.3592610942803418 -0.1847619672256151 0.24041047012422823
1.3692495693689466 -0.1651276836723703 0.22017808339551692
1.3676563409008224 -0.08639365000476129 0.31026558858579634
1.397308654538989 0.016159637293534646 0.2485796424395481
0.9379495674493654 -0.09867055453735674 0.6355761694634054
1.1284173837139377 -0.3105081537222354 0.3964631422608278
0.9675612750925922 -0.1235231903153089 0.6520050637494279
0.994672630047404 -0.1334676006177382 0.6527325449921051
1.0417640191790412 -0.3358726798947309 0.3035430690901997
0.917290710690466 -0.10411079410941326 0.5987437907199933
0.9144145383822178 0.06051922518747421 0.20435206820103247
1.0802951677107586 -0.16746162888152227 0.025541583087931308
1.1646277368681979 -0.1770753980168216 0.05819468189381727
0.9072419262760434 0.09521010351025261 0.20337283407306117
0.7479992634536359 -0.10698433216798975 0.11840949061922679
0.8928915620643352 -0.1394624461206817 0.031650054701715113
0.9151107512954582 0.039469878393902924 0.24612906207826413
1.24366293701911 -0.17973614010191596 0.13273501150069755
1.08174036419733 -0.16501695951950168 0.06702925925121672
0.9393000166144105 -0.015205084532279312 0.21663356125388944
0.9075457859048441 0.05953988397618293 0.27552214841540135
0.8984680330360817 0.1271869711504081 0.2020083998264255
1.1701710548440758 -0.17031604185914873 0.04471775348993123
0.968417941652504 -0.042832471329035116 0.22596377375785792
0.8135263739545451 0.190519666008111 0.0009114717194234206
1.2212019108181238 -0.22171395803745497 0.005324898120284138
0.8955291527356479 0.10595444762966366 0.23873300991660074
0.9698927788020484 -0.12719517373271927 0.2214715214009999
1.0818303141861207 -0.1617524281346494 0.05561793596492226
0.9652278867167041 -0.12304460283328211 0.21898761671053535
0.9823977119103944 -0.19607741881552343 0.23541501183007796
1.148544250539132 -0.17795099690770755 0.04233892698428887
0.7960777037956035 0.19788080900745797 0.09578637239677334
0.9479474658701292 -0.07230224538578245 0.2493654198416273
0.9840123570425163 -0.13058905105978624 0.6594757101517956
1.175050027902742 0.01265637435509892 0.7500020642040539
1.2580396008942074 -0.053505294499025524 0.6501656293119851
1.1085819548524256 -0.2994840972626811 0.5517280452455964
1.1738403290534904 0.01076877785594954 0.6855011117419352
1.2168642653586659 0.0974515501475981 0.7728078986954046
1.2235384688602835 -0.2726111954448207 0.527130149977566
0.7850322735053794 -0.12305403687377314 0.014891031909957109
0.9840433683719851 -0.19681447330700763 0.24029036547252858
0.982245996262634 -0.21491311780161837 0.3111000460651425
0.9913359137965472 -0.12271497895769201 0.19376878810321685
1.239664702850689 0.08078562157861402 0.3881673974612809
1.23485160745048 0.07713923642884701 0.43840943486696204
1.2332730279805304 0.07724871306103775 0.43855626751533094
1.1677151631501204 -0.011111491328866796 0.7397568461474435
1.227928542313208 -0.2779311376152016 0.5496846813335665
1.2273080587238638 -0.2744382938838008 0.5474384159468215
1.1420836996775563 -0.25360634764647116 0.5862339746122558
1.1478497509590113 -0.0323464202086865 0.7467623226077791
1.2862313837143802 -0.24567974046759034 0.6059687451529783
1.3008898052210327 0.03913000396750688 0.6425202229313953
1.2010687903270423 0.056345342249275454 0.7547688996100277
1.1732825534563318 -0.3075986999181346 0.23254080985491754
1.0227249475516231 -0.15718377182897925 0.01702006783214416
1.1506131859479751 -0.11088546318184456 0.042812058571162215
1.1479062052853095 -0.18272046656335306 0.04106893219463448
1.1323705572213072 -0.1760242038978177 0.029479949649229287
1.2425505554910643 -0.28842945780693796 0.3275761640952801
1.2166169457228193 -0.2927484065187258 0.3512307195641995
0.9255958359888439 -0.14293653956275243 0.0035636114165923938
0.8800955336589311 -0.07744030653716205 0.5275495739252989
0.9099563599377802 -0.11306602224344431 0.5783484017615947
0.9027194121729565 0.018349460400854944 0.2751386402131928
0.9066493700165523 0.17395167048942284 0.1878628860058562
0.9002314811496603 0.14757362210989555 0.20830967495784947
1.0578359405095483 -0.18417236646575574 0.6546146414242315
1.10795615993041 -0.3214140972798418 0.3380147103777986
0.7732153293112987 0.39701025235931553 0.7093657432680089
0.9158252112064247 -0.08196713609804451 0.3268128313570706
0.9855856251797945 -0.18694342578710277 0.2809895443174071
1.072715724655282 -0.32798241679465434 0.391326955067548
1.1279812547682866 -0.31130412545637753 0.42263636166588014
0.8269546222811641 -0.044932830338129115 0.6253877912330452
0.9630713999854379 -0.2126208922539341 0.3376102138448722
0.9075032952434725 0.07734736356957761 0.26063082068777277
0.8862481128922184 0.11628266596759751 0.30548339743173614
1.1053680845862601 -0.3197321824061028 0.39057874249412095
1.149019700479883 -0.2993004493689 0.45615926615504065
1.0109641150172166 -0.13045491849316804 0.6363165863711373
1.0346044284045774 -0.33055929122353334 0.49616439516974253
1.1268665602405292 -0.1856098743699519 0.026824363625992387
0.9375680081635807 -0.14076683874979956 0.0027888989005041276
0.8976453761385983 0.09785234159765288 0.24735139675927442
0.9077143778838348 0.06587708020729721 0.2787079200184017
1.0814711995642057 -0.16789138636963408 0.026870098911959683
1.0854676347328507 -0.15746211350262662 0.01987469497641059
0.8081526759575297 0.2340979084108774 0.09449194922474646
0.9670345108249023 -0.14705154809162124 0.2582150852388132
1.190539758639133 -0.18695619011884546 0.09430341833157385
1.196512009561559 -0.18691616237383357 0.1023961759897496
0.918087667591152 -0.14923330648640487 0.0017091426483407945
1.2571760810018162 -0.19681809272322326 0.07267018902743061
1.1774154556079708 -0.1859348294127905 0.07944943055762543
0.9666374458743832 -0.153014621973524 0.2968954650852673
0.8378791769197846 0.2866213773655879 0.006897888510201122
0.9369375015754855 -0.01632430868447221 0.21555279072190459
1.0287177584714868 -0.1465133687420206 0.6268595872163019
1.1022207773117998 -0.18497810419868088 0.5852684257325791
1.081371397909976 -0.1912468045841642 0.5836512534341054
1.0240743687167964 -0.17499807798402323 0.5679965715516033
0.9839940243781342 -0.1412691666038679 0.676984518303243
1.0079913107210103 -0.1365180081959405 0.6361992230524294
0.7958017714966559 -0.013917261708388251 0.6243359760307854
1.0359849465658755 -0.32884201743753394 0.49602891335329247
1.0432739796575419 -0.3326261492159688 0.4424590690289776
1.0934337770734714 -0.21150148606009722 0.6053838988925264
0.839567838042683 -0.12703195733639205 0.5594586042822414
0.9696575381646966 -0.19758080437817682 0.37341915446582163
0.8052189356564554 -0.032949355518967494 0.6245397341720604
0.8988473649888107 0.11033352362562532 0.23622089947965108
0.9377278621436602 -0.09857699584068236 0.6127893958030128
0.9535722528358548 -0.17986266975281495 0.4029947536135481
1.009132304912157 -0.15476708333847178 0.7088970609930811
1.0104326390834473 -0.1330758684165545 0.6366752726597724
1.0233168184778663 -0.13764075538936105 0.6384847237676183
1.0073558354668677 -0.1373572522996902 0.6348773865504853
0.9906692558796237 -0.14611903441616114 0.7026428811057883
1.007926803729049 -0.15320929944926398 0.013259099514364436
0.940063734852572 -0.14579512878985845 0.035754196950688044
1.2308430076166843 -0.18994833366264174 0.10070530895045948
1.2403482370988428 -0.19733271374242634 0.026938827663811615
0.8927483274155179 -0.13445034707860515 0.029650048825948794
0.9174931409985732 -0.13837785271417324 0.03229272327787802
1.0807557973200232 -0.14152372507214572 0.02395648224379432
1.0687749728130314 -0.15995380315045438 0.05863625602628986
1.1742899933307882 -0.17950420833915182 0.07995980572319095
0.9506875138620074 -0.1403950775877938 0.0352411795042018
1.1440774197624393 -0.17659447611841905 0.07531397446880472
1.3604511754653714 -0.19117861392599522 0.08944135908329987
1.138420336467405 -0.1772998660721825 0.02232880239454671
0.8244484442601419 -0.1254805556130556 0.017686313478285642
1.1210986242926424 -0.17957588991355244 0.03263027399623031
1.0397188134339075 -0.3399062087254201 0.31774685765350696
1.1509870352347207 -0.17718071446203076 0.043139278426218564
1.1771253026441286 -0.1745899084932212 0.057084447386337445
0.7895362836107722 -0.11847627848590392 0.007687069154043713
1.1457766178840245 -0.17470034352112584 0.024742420270853493
1.394798878518415 -0.0017664931281731466 0.2629291714013604
1.2347911267913503 0.1347259902525888 0.29902565215314425
1.2312503525659224 0.1289656036787612 0.32642632482190237
1.2515566053687621 0.08154840819189157 0.2895257340036572
1.2638525975031456 0.020872526799980973 0.3070006181593321
1.2622950063639138 0.009522692094565688 0.3657893394166223
1.3667882806756637 -0.16789080811970614 0.22095548688197297
1.4027457458614379 0.002549196402380216 0.25854415228113936
1.2231086792471757 0.14929386210385864 0.36238331884106856
0.839995228989423 -0.1185279568961306 0.5598049974057417
0.8293737629796993 -0.05276308929984985 0.6332347712551822
1.0095910498549898 -0.1459396698551796 0.6551911351857242
1.0954294674914422 -0.19873201431805043 0.6091192220937103
1.029310143397666 -0.15026547189944672 0.6364295378570617
1.0964414476986661 -0.31632157866445354 0.4215254364709864
0.9614284848568388 -0.09893041362997401 0.25354931507024503
0.9748085885227908 -0.1330098729664453 0.6585109322720228
0.9852546948877006 -0.16106607759518 0.23053271918849205
1.2565016274191976 0.04638609555286166 0.31253813221926663
1.2473071108983191 0.09142747089829761 0.2614891791641405
1.3715148527533216 -0.1626091482362213 0.22369609170711513
1.362128785589647 -0.18512240968069804 0.24162935672233488
1.363178287792195 -0.18491231220687965 0.24210350024658212
1.3942970432476187 -0.0005734087998003276 0.26474112825889407
1.2620824673903996 0.0060611193696846755 0.36589578023669134
1.3763271771536267 -0.12789379602065942 0.23135458366940753
1.3965275459696613 -0.001421719639887603 0.2593763395941018
1.3998924465503393 0.01666942216229872 0.24686605231975634
1.3935787283371326 -0.043076835465249985 0.23299886946450243
1.3867958138490621 -0.02658618622858988 0.2848527464193218
1.3701925879180976 -0.16503851539181547 0.22093272096814331
1.257245899326449 0.04615586106071934 0.31196206679105387
1.2414404012960745 0.10320977363836192 0.3243063749194164
1.349866117784444 -0.1143740235804458 0.3617227860900485
1.3684909911301446 -0.1046248904203484 0.2895229070040095
1.365084370887999 -0.2067517197353297 0.21898296929444783
1.1799350832939837 0.021040725247770675 0.6785515327746339
1.2803141307851007 -0.21057857775844013 0.5940717026355458
1.1910092119139648 0.0722890955540878 0.6899436131883263
1.1706334834531162 0.026301740805703133 0.7508921407598024
1.17232737024203 0.007108998590664162 0.6768122854913727
1.0735101972229444 -0.1140297399983492 0.7162745449070584
1.3774655156784377 -0.10438155428400542 0.2504038282122245
1.3745860023706058 -0.13258719368578475 0.23262150784486124
1.2382616543588654 0.0971199773555842 0.34998763213577533
1.3994537476050084 -0.0226099202032648 0.21544401548545977
1.3702034675834085 -0.16341263721942667 0.22274163665938929
1.1448007033389729 -0.04008233876549694 0.747618817834379
1.1374469062553771 -0.22920516443726058 0.6266613545743382
1.2130330811694279 -0.15428111781569775 0.5993968276386141
1.2722328524588278 -0.03662532243588146 0.6433917954894497
1.1772425802961806 -0.004630470821404553 0.7273478596938077
1.1872120373871553 0.020536372180413043 0.7402271560888352
1.166251291332543 -0.0034636698847759217 0.745645400746966
1.1098275480305375 -0.30014764976332486 0.5515502869344147
1.17102403773778 0.007230487963545418 0.6815598458997485
1.1167284255039078 -0.19296622003656339 0.5825483380715468
1.1092618911010277 -0.3082504518369156 0.5489528739247618
1.028541970493393 -0.1667116708499794 0.7147090724354754
1.030874159536097 -0.16123768932379434 0.7158850614555945
1.0034034329594022 -0.15599946243489704 0.7067229697640087
1.0291982627449414 -0.15199834772516851 0.6312008306753114
1.1572391591222697 -0.3029283037501429 0.39848804500849155
1.007256462145918 -0.14836450738633822 0.7130100028138742
0.8900706447492013 -0.09497165037330113 0.5930027112687597
0.8149717417744284 -0.04058415261962933 0.637894780341135
1.007809097743717 -0.13844170649788268 0.629678662698332
0.8200306148106762 -0.031203854569819 0.6199756289074898
1.032265643029362 -0.15184712466068007 0.7070333400586648
0.9163075144796551 0.06405485405937661 0.2103337638722813
0.8086085939007148 -0.046976381645968956 0.6431758726830239
1.1042680390566773 -0.30388871263046013 0.5531248829048607
1.020148951205968 -0.17226444428301235 0.6169373752861063
1.0392713764896655 -0.19929171741496887 0.6321721192209395
1.1138923451906635 -0.30955641859083727 0.5522161738514342
1.1494158230971863 -0.3000373539437362 0.45719274869291837
0.9869687990074283 -0.15222285861385743 0.6701996334820848
0.8217124226010952 0.02881111794091007 0.5428789366816744
1.1174195840844448 -0.3068390936794607 0.4544424207023212
1.0236356697714655 -0.14091282543994055 0.6322636112095381
0.9755400960982996 -0.13606567754397503 0.685939982020578
0.8959180793538479 0.04572880742643726 0.32026434367312007
0.8899990274247926 0.06932477761099065 0.3153515537020013
0.882478780028606 0.10996047746377968 0.30889944100604083
0.9694153585282095 -0.17339138914257646 0.32880025494273823
0.9507479945211372 -0.1749730740288058 0.36882271003861433
0.9585862365443631 -0.16005597134605587 0.4005091784232917
0.8918828371900389 0.14097307051576635 0.2722078125784222
1.1181782479899027 -0.3071404903919017 0.4542576805586762
0.9574221980227549 -0.14411174687463557 0.3432101788970243
0.8813347875044997 0.10226316779799127 0.30982226364104193
0.8544360571898579 -0.136717375921096 0.5604179423293587
1.0302676396116794 -0.15744025779701687 0.5660094049659037
0.8222307915364979 -0.10832781020890359 0.575652343597568
0.9330384693947025 -0.033005344032823736 0.26696801156472105
0.7457569387330665 0.022079140311075385 0.5617500159966937
0.8139392015697666 -0.048100676193363334 0.6379349580027949
0.995742520914078 -0.12295841146902298 0.6356077376261382
0.9142897220644386 -0.1061708737276934 0.5913966328022369
0.9515416104222396 -0.10317027060161799 0.2767849391747035
1.0966583556716358 -0.3165030206418429 0.4213325579950222
1.0727804029805554 -0.3247664262787531 0.41567577453328397
0.8973460568425651 0.08766529655462652 0.23976150237176697
0.8125983470701925 -0.045370977804362056 0.634442328438034
1.0038644909019467 -0.14499500222290074 0.6220167654864639
0.8982435007307288 0.021907927467827992 0.3923624936051695
0.9828919228488076 -0.1419079507325982 0.6714074048315766
0.9196590510619984 -0.0821733625098453 0.6176261780336034
0.9698588548062759 -0.19697250687064738 0.36213462853872613
1.0032232759818527 -0.14456832873440462 0.656827411148484
1.0179760164767515 -0.14068642988481983 0.6275044001359475
1.0732782119185202 -0.3243186252512231 0.41557888554535793
0.8579098400903007 -0.057794586485342414 0.6204037051874778
0.9698976618014399 -0.19815629155646164 0.36767135018209274
1.097162246942176 -0.1993352360762124 0.5901757544543784
1.021317273060376 -0.1545073099125105 0.6233008229931158
1.1276503244761926 -0.31020911284283414 0.39652970525253295
1.0508819497094635 -0.3351301213205993 0.38438187359968623
0.988070814870099 -0.15389676365526128 0.010086293693602477
1.2582539388674974 -0.19678001389463518 0.07531063882338707
1.2839243806685374 -0.1892679904974237 0.1429435963535397
1.0596977339442049 -0.16245135025588553 0.05544075054950248
1.1610468706477661 -0.17406417222540327 0.05643601505047613
1.261301701487696 -0.2050450257813452 0.007737066356146571
0.9589699374965477 -0.14575534733648254 0.04315844634049659
0.8771188743632052 -0.15738477792893057 0.032984358379188894
1.1891373954805573 -0.30126116637456235 0.25694158614751217
1.2477319318453794 -0.19288712829641952 0.16809375242774927
1.1883515752451501 -0.30203231619513105 0.27172574488849577
0.9391988442936849 -0.12989928456240918 0.037527737667175654
1.186729648447269 -0.3000705711895968 0.24083259257162482
1.1655467687536714 -0.1734726867991121 0.07792750887228195
1.1817339974031427 -0.18272635614595245 0.08513793209874443
1.0324539383392306 -0.15704963926236104 0.05541752417739687
1.087361724496816 -0.16783802675128356 0.02762889667156765
1.1076625803003282 -0.17181503700568257 0.02950141450072108
1.1009089638086067 -0.16318420708122616 0.06359415484595399
1.3442032091568024 -0.20799564241364976 0.09716788643294727
1.2597320313499694 -0.19533952907414331 0.07559687789188363
1.256799918715359 -0.19485654046766498 0.07479016034658059
1.260376501602991 -0.19161075937214278 0.06763594515478033
1.2649456183669372 -0.1943779851106342 0.0735775059976973
1.349584788486169 -0.20945443848185974 0.10487221005619496
1.0934515100712616 -0.1684250360947992 0.06593246370039552
1.1336415933962485 -0.17097736702673672 0.07258412616315546
1.1735984064169713 -0.1862575571225733 0.07321701000095437
1.171045026068498 -0.1881896828817986 0.08131639076247144
1.1481076932602008 -0.17652162733583054 0.03926482989862201
1.1800640116112504 -0.3034447451857858 0.25999583801690207
1.18963631808505 -0.30002041336251395 0.25610742850146195
1.1799646382903006 -0.30486852500835937 0.24266727250966014
1.1813459274515026 -0.30333134394991745 0.24789548710813847
0.9885414674781146 -0.14822604865359246 0.00923416077375061
0.9705706590509067 -0.14528927789456247 0.00601945391914771
0.9138756951160332 -0.13009712099608883 0.028360824549107377
0.9217982331287544 -0.14558824381563973 0.03676602456418099
1.0458414950042538 -0.34467632088098554 0.21478900823375113
1.1822880893340937 -0.30266029561687446 0.24075219441497708
1.1776108612502867 -0.3040774576902727 0.2632965742722426
1.188556661219593 -0.3001383763478138 0.26243101979677164
1.2853271721603932 -0.06848530327810298 0.31437473965706175
1.247396975220454 0.06001167702155641 0.48797277819055296
1.3538748032848957 -0.11328941946560533 0.3672041242403168
1.2936556844558567 -0.07914512653304673 0.32578101931898473
1.288566571090044 -0.08585159423897704 0.3451942614831083
1.2700021784034732 -0.0887427849828537 0.3410944909106739
1.3471850084518877 -0.13094806930671332 0.385113595341835
1.2513116843992833 0.06255128645507924 0.489265830696084
0.9085090217848091 0.06446064094630888 0.25638841513311306
1.0081444827019226 -0.33630094892469486 0.5204744504736425
0.9138016791252568 -0.08476946374882832 0.610872732875194
0.9124273289631901 -0.08678848762222469 0.612641963488052
0.9616041015016208 -0.12634438604707476 0.6532503999275718
1.0177153328425703 -0.19307094752351261 0.5920166023916451
1.119488947826568 -0.3082188622575188 0.45257715776809704
0.9351230818015921 -0.10748672427205008 0.6379219795044122
0.9880566798718604 -0.14889815711150334 0.67182168877995
0.9273790730999565 -0.04203713941772991 0.31992799496503466
0.9277201977241134 -0.02129252230493428 0.2939764166156955
1.1140952894987066 -0.21895568446451463 0.6133683310642013
0.9941812461086386 -0.154463437876311 0.6857450047115421
1.045538149375389 -0.3414671194475716 0.30204304594379394
0.9166154861079434 0.06261562211372862 0.20479969789525043
0.9116985627206731 -0.032615825779280794 0.4445076586070229
1.1900958340277867 -0.19219320696622688 0.09116751543069235
1.3171280055308188 -0.2129641157111628 0.035359980416480585
0.8263744020201358 -0.04798598995765513 0.6360341862396623
0.9950884559955853 -0.15231336543591212 0.6859537743521926
0.8008107865391167 -0.03736258841692264 0.6403088667069667
0.9752969741285966 -0.1377112697555738 0.6741851033187629
0.8554537770630333 -0.05928131523757152 0.6303553436140064
1.0103232427637465 -0.33172105957875786 0.5208043955991926
1.0261796267877799 -0.14645550091589854 0.6325577476728839
0.9285099586256962 -0.09928327458600172 0.6328078086417221
0.9725582968032143 -0.13945606395481036 0.6802938640575107
0.9461918990889018 -0.10510921756832659 0.607537215957521
0.8134535572969526 -0.04319607541914072 0.6340021303262233
0.7757349569973115 -0.02294607883845723 0.6415403248868401
1.1013264174232518 -0.19119910967344111 0.5840450202183689
0.9928330242766492 -0.1427045328416643 0.6771998842764049
0.8239056603277817 -0.04324056318443015 0.6263795969427832
0.7870177695912872 0.01684338035416233 0.645285157086839
0.9883240455052089 -0.13571157442143544 0.653190775935002
0.8269994259422475 -0.045639467812570444 0.6255399352140856
0.8269132452863204 -0.03773423981852542 0.627986275075898
1.0092014379035419 -0.3318158497336121 0.5229815708278807
1.022249240610904 -0.15716944408076472 0.6254102358969149
0.7993368917227883 -0.02795173146467045 0.6185361720868698
0.9995516887727263 -0.3340904922001542 0.5492407567222202
1.1806465448719905 -0.18186842600286468 0.08479133016277007
0.8105930619867507 -0.1244604906151725 0.017130979380822753
1.084880047139407 -0.16630209856768552 0.026310743835831207
0.9397546495577558 -0.14464029943376921 0.037234441807891816
0.9931231772404914 -0.21564057762763156 0.23736309300398162
1.1875090436834768 -0.30133880178155437 0.2721038346747129
1.1733845824436173 -0.18467428740320813 0.07061491745021797
0.9466518433649185 -0.13862760314138356 0.03810461692862033
1.1930960516539102 -0.30715175555716456 0.27559303757323406
1.195412135365288 -0.2987939880986801 0.2730156919777471
1.0640403480697103 -0.1608784033685673 0.02276968316252237
1.0819612128364753 -0.16193080752908706 0.02703962251583425
1.1883055722508828 -0.2990464049005581 0.2800103101894358
0.895158901448454 -0.13689891427347334 0.028079564854990302
0.8256957507713736 -0.12820111444069582 0.018726653364267154
0.9487033884425955 -0.1459152548582221 0.04054198053113467
1.048708929313591 -0.15969541109932095 0.058484481482703465
0.9199556290250399 -0.14149204982609298 0.03496585222601212
0.980213983182523 -0.14036153909197324 0.19129520624479923
0.964626078458366 -0.1551119451704963 0.007613070564306823
1.2612312834964712 -0.19933176657664475 0.07410404003624915
0.7759665996351117 -0.10679265302520946 0.0012976293972132708
0.7806463120519425 -0.11233402208466359 0.0024526706611537052
1.1118150144495331 -0.16868694047882826 0.03280074528748678
1.1787436314424582 -0.1825791379976316 0.08347770695146917
1.1857031049085265 -0.29863773211815214 0.2656860528911409
1.1818983917159898 -0.30310955297755626 0.24051414819464156
0.9772493172186358 -0.13556633731453438 0.18793478174689682
1.179523540678602 -0.3022253445877432 0.2320268099189704
1.107761525287998 -0.16539048755628727 0.029166985261146472
1.178649312454212 -0.3008932495037442 0.25744243625176466
1.1902043736809276 -0.29979870805680875 0.24995938960094222
1.251041577432943 -0.28828063340881727 0.291890776208934
1.334210879068678 -0.20864544541600694 0.10640016053245382
1.165599025413826 -0.3058085023912227 0.34470326304429477
1.1794857616833099 -0.30352593575900144 0.2318120436124005
1.181080018151306 -0.30634661749083136 0.239683267298183
1.1887005812016582 -0.29728321378694744 0.2720559255973498
1.188108967275383 -0.2987841150165771 0.26233841414164516
1.3430035333063017 -0.2090386982003345 0.10039748723881914
1.2587134548102341 -0.2027336751527109 0.07058869274515267
1.2566512870672142 -0.19569682327961857 0.07932864057267786
1.0919464325921524 -0.15264389951972213 0.06322800484991564
1.1714273563541866 -0.3033462713647239 0.2714842505852566
1.1887524951951889 -0.30212479335027353 0.24939996492065575
0.9312079442894827 -0.14205934513039864 0.0009994190828126887
1.2208549608613595 -0.133712896378837 0.6210172497776867
1.3840147315289641 -0.034064473025838815 0.2976120666626336
1.2425480711580406 0.1135513666829624 0.2622279898220725
1.235823752662668 0.13524067552178387 0.2602756038987053
1.2461721133730919 0.09767600749462702 0.2625706778627013
1.1726275462046232 -0.1882878354529005 0.06798965742320195
1.1621241288468553 -0.170138294256299 0.057107106216847114
0.900953908059634 0.10313752452236535 0.2048885556341773
1.1050647389573953 -0.3178359081424098 0.3909100154528389
1.050779920722178 -0.334772869948452 0.3846322772351485
0.8080649533017947 -0.036022579875576444 0.6439585232521594
1.2847426685665653 -0.21975750294792817 0.5965413438277878
0.8351751089234227 -0.11384835156261985 0.5724269511661717
0.9029547384769643 -0.10810430590342257 0.5860234059718294
0.8626922668276649 -0.07112493388666152 0.5976600646883767
1.1543055044878514 -0.05123588840683091 0.7329444623297121
1.1084192738726983 -0.2615919791513299 0.5770166707608837
1.2100780955376678 0.11589523851587735 0.4895133644985705
1.0375635260358251 -0.15558596019475956 0.5668317191967631
1.1524182680563655 -0.27991916086746116 0.5897634836724208
1.0855532157221859 -0.058790696944543974 0.7474134748599681
1.050342849443311 -0.17963532115614633 0.6888834454871073
1.1311696820376227 -0.21915031910692662 0.6269501368716845
1.220509638571059 -0.1199486634274205 0.6556673132930513
1.115938921602293 -0.08610330964510915 0.7026927819329032
0.9464452153906677 -0.11158748001102836 0.647901159760842
1.1026624745900904 -0.08859345193896306 0.7501004951917878
1.0496641981945487 -0.1990823266910624 0.6039042215769186
1.2440722523014358 -0.16000838351865276 0.6080695485578502
1.0951435121937436 -0.22274609132550083 0.5972470229065152
0.9530626218993632 -0.21215563664524595 0.6210982904342544
1.2903606878664675 -0.12211072919965815 0.38699749077373724
1.2795876775422954 -0.09516949751531278 0.4394290822398972
1.2845939512517646 -0.08050828113400854 0.3752097160760215
1.281136787682584 -0.09412434289555627 0.43962573004872496
1.2663914145201005 -0.01868615043702282 0.35988150981950184
1.2248981700241757 0.1072969833373616 0.44208804674187974
1.2260772858772384 0.10928609883948504 0.41668227207452446
1.2291358424960919 0.11624516538893737 0.3859223742410478
1.4010602544048112 -0.023762610570037257 0.21541308982264695
1.2553480402296202 0.07291951647552697 0.25554162165530414
1.401304661374354 0.017845739125085247 0.246188514737522
1.2828244208056105 -0.08034497907102534 0.373931055568697
1.2358066193314698 0.13394114447539351 0.25747351183122547
1.2467768342977337 0.09132490649441216 0.261542506657495
1.253774343759062 0.08191548981281382 0.2905743367063174
1.1601274104290127 -0.03131347041032573 0.6739391543494122
1.1637865759730204 -0.011363778292219351 0.6746968759216543
1.210036547209512 0.04969288201578159 0.7337833958918338
1.1545375754589315 -0.03501003748092257 0.7309473155785895
1.0786598769145428 -0.13951156523956065 0.6736318680543718
0.9261640629180334 -0.11164889229504205 0.5529797207562837
1.2570208530211602 -0.09874920723588865 0.6285249470087706
1.192737279698619 0.05406477807513799 0.6849910096388356
1.0351489256700575 -0.1741075195533348 0.701255895111963
1.2013257046283599 0.04810666215095072 0.7425586597982914
1.2825522578395265 -0.2444646017856833 0.6081045433868226
1.1409800561484218 -0.04603831570036743 0.7445781655466277
1.1699211652085495 0.003724965567057925 0.7481743660984819
1.17493317858397 0.012483215272510728 0.7482400724236271
1.2209784065126428 -0.2769861701496268 0.5454969525220932
1.2576119529474994 -0.05130568531479973 0.6484994556862844
1.2220676580435708 -0.2696154753181368 0.5701235889532086
0.9730071900806081 -0.13351480294518936 0.6661203586570963
1.2168654646918498 0.09844666473192376 0.7581848575176764
1.1574488710961361 -0.04427327739948694 0.7317470138122673
1.2246949687161646 -0.12010513357458841 0.6495298542245465
1.1608086316774546 -0.015296805411474379 0.6801431764096222
1.1746740369495967 0.013841770644879015 0.7465922742956366
1.1515259641675613 -0.02355479664801763 0.7346492287839368
1.2224165783334229 -0.2729163829067893 0.5711050718308996
0.8273482605654436 -0.06958076564159033 0.5788975678598263
1.1369983556446073 -0.140996029179572 0.6729232763093407
1.2096229485943866 -0.27340718859562685 0.5782425177747896
1.212827995194985 -0.09049257997313376 0.6500947829874804
0.9861914597709642 -0.1896620356983192 0.23428648213737802
0.9279180020327971 -0.0031870371939884956 0.24806883358653664
0.9698535434736044 -0.15126203210859224 0.25641844129603797
0.9280799976792764 -0.07869914592195659 0.4214989226409571
1.0372578674072486 -0.13189465373041998 0.6348195615576913
0.9942380431015607 -0.21658698000969423 0.23048320386132914
0.7948149772862934 0.09507467523546254 0.6445318901807084
0.8835369345634092 0.09565623403799073 0.4011696683409838
0.9169064957383455 0.050201495660733286 0.21157535213422562
0.9615206621786854 -0.14016624053297733 0.2956132708283832
0.9403698218144285 -0.12340177924710538 0.4110545724424952
0.8384256445183524 -0.04448674532080199 0.5863457695983243
0.9832525794705305 -0.19155436929583658 0.26839162005398265
0.9406308481152337 -0.09871597928169606 0.6143375636100856
0.8107609686324935 -0.03483600031511047 0.6311999311754235
0.7833951837093878 -0.013743967433108573 0.6429566517103424
0.9984823119059882 -0.15135041868091115 0.7032834106926344
0.9204232833000958 -0.11471464491299876 0.5988738755371159
0.9073895299243162 -0.11278463940350925 0.6597961891118587
0.9722474125086222 -0.1275137144846905 0.6470044440392542
0.9526989669446806 -0.11657120197330784 0.6061670634615979
1.1080485942522245 -0.31143641618989193 0.5487125789547065
0.9347889818432265 -0.05864586675425887 0.2930238676510655
0.9095975879824891 0.04779304723169897 0.2627879713356229
0.9852369618899104 -0.14605094013298014 0.6826267384334628
0.8042038714496158 -0.03587645933128547 0.6338449320124795
1.0113568966349362 -0.33483855485693326 0.5200966176873933
1.0031381233257974 -0.1542416683206138 0.6201937362136434
1.001402773875384 -0.16042494834174192 0.6147300025611813
1.07166630811939 -0.32586929880798365 0.3907317859750492
0.9849316459279578 -0.14198859518088192 0.6730989786207786
0.9999665723876916 -0.33473753245285565 0.5490360990810572
0.795119864914966 -0.015862276283715726 0.5903316249349544
0.8467807991438292 -0.10841667865616245 0.5767686229584612
0.9602401170049291 -0.12045167661473677 0.6500944403208564
0.9723192868329988 -0.14077972087319424 0.6971027327961821
0.8454390023110392 -0.11180217135927428 0.5774303122093372
0.8487517318982185 -0.10190418167606019 0.577101652083627
0.8090078005176338 -0.031899957722656413 0.6237785002669227
1.007304092806649 -0.14524934652453858 0.6309384765413384
0.9542631544164237 -0.11771272087272244 0.6073998494746391
0.8144257025091406 -0.0342775634784509 0.6219153361657703
1.005222564399375 -0.33715080498545547 0.5269799334962855
0.8240727103069645 -0.12338055533308356 0.5839610240621695
0.8450077563647795 0.016090037151166303 0.5359035720509198
0.9162902954818009 -0.09145686526963459 0.6120637563934395
0.9881644485250973 -0.14080576353661556 0.6161286392202214
0.9719393552136779 -0.1441454031621081 0.6667397714132406
0.9852283095576553 -0.14100592367833897 0.6740566461681041
0.8972372601894563 0.057143669816457354 0.28892339032871917
0.8301821992122882 -0.12651069715134966 0.5741118001228784
0.9939992044646573 -0.14817067586882615 0.6623529104599157
0.9339616989463195 -0.1402142245686644 0.4776447204775991
0.9678041400623272 -0.1313061238037605 0.6572271317653389
0.9131950735341832 0.04301068474432679 0.21322903984481556
0.955437301603439 -0.1875858400403807 0.4315652687198579
0.8803315452961868 0.09568345461793193 0.41189748950412053
0.9800032432087846 -0.13536222579830337 0.6637341996211177
1.2263511621764422 0.13628350643349663 0.6955655303210762
1.1802060469268838 0.0185784005233669 0.6764097378748701
1.2565521707462324 -0.09858934254747709 0.6290435729441413
1.254095422385717 -0.05501547985249822 0.662827161067483
1.1086706198413765 -0.09268350470010844 0.7523597819102434
1.1954762140239694 0.02505858645020398 0.740870684008641
1.2245903697291993 -0.11950096948321054 0.6544385964461696
1.0275066889557394 -0.14966036547485295 0.7295022047586741
1.2224505023291954 -0.2746379400255883 0.5256802418249151
1.2334346809603858 0.10041304644521354 0.6971979941176443
1.2240263404661533 0.09002968019748536 0.7477040561570902
1.0751841236810122 -0.1271900016083638 0.7244811963843745
1.223834018823453 -0.12190064243417176 0.6395527728011885
1.1109733395544197 -0.0924553851035359 0.7406347580380412
1.2072977842174737 0.06236806689457808 0.7459398370436077
1.1107549752482981 -0.09988567180259977 0.68893510248067
1.2546039396556807 -0.0926013396686809 0.6272694164985637
1.008509422656445 -0.15389997615486095 0.661503868232387
1.2014232789495338 0.060985856816824224 0.7471067025648637
1.238079869714852 0.07849831115531725 0.6901782113257582
1.2257573209171113 0.07282758009115042 0.7371207974759386
1.2064453153237054 0.08731031534886302 0.7463494093259015
1.0246265759813156 -0.14397459455839368 0.7323489934039173
1.2205750878962363 0.08201053696763605 0.7483219697467547
1.1441639430849904 -0.07085566217021722 0.7220633406856791
1.1113632085058356 -0.10023407809251594 0.6899060055263462
1.2565392350811777 -0.09511515273041837 0.6276031737903054
1.2238097751598076 -0.12714113948945283 0.657712176371561
0.7976181616036371 -0.026355526080250602 0.5770289210926904
1.0418098508399964 -0.17484112596191537 0.6736997160459168
1.2039124093060138 0.13772422683729246 0.7499298472130533
1.1652643257888684 -0.26514667420835636 0.5926615009779468
1.2162576597675923 0.06136075552010567 0.7502021815124493
1.0862780412985273 -0.13224518027007193 0.7215597064151069
1.2321349464556874 -0.14026360068751131 0.6456236260446602
1.1454065379301426 -0.29803768002626185 0.4818101759585147
1.1427297975970419 -0.04676025002706918 0.7452443094636152
1.1764522197280058 -0.29235757381743 0.48776169555019067
1.1075704886451376 -0.3010776469807652 0.5470688499928755
1.0412077855816904 -0.33197491129712375 0.4414221598248602
1.1977685680716377 0.05064117441844207 0.7488189220181596
1.2120238422951957 0.08851199365744744 0.6839187629391219
1.2817079272780774 0.005929159255920746 0.649242228427056
1.2752503747494615 -0.030235518846739584 0.6472675263398031
1.2620462303949154 -0.055075928386632 0.6422521719647989
1.2737212249400187 -0.002035635006091968 0.6497162220346553
1.2521842849572096 -0.07039862520633822 0.6528784353072581
1.2848852178821346 -0.0007032713772045507 0.6469714195433696
1.1746191246231064 0.013720105253790527 0.749145825977422
1.1835550991762034 0.021505816215854345 0.7466650052865731
1.2234612832032354 0.0778871652314761 0.7360691536069908
1.2205221459028337 -0.2719597005260077 0.5649638005962032
1.272278512786471 -0.026741459719656913 0.642698580909169
1.2592312240790449 -0.07228180317999655 0.6415187368895303
1.2698797607520618 -0.034477838734743305 0.6475154456422416
1.2116168400125815 0.08910513887519844 0.6835340339870655
1.2094312266182783 0.09553229580343547 0.691347175680086
1.1753069422040596 0.002608436568174999 0.7429282257522374
1.2879976588276065 -0.21522475167945032 0.5982632864465387
1.223445863205157 -0.11872137078869471 0.6586877482499887
1.2367626592123315 -0.07589684504200278 0.6581840283127605
1.2365184235761006 -0.07707684968662143 0.6581575573160592
1.2817750042697185 0.04845710302394668 0.6497079123690241
1.2848841042156067 0.0123317914267973 0.6530355051210179
1.1968092728578483 0.05231543283480189 0.7555574611784266
1.224476433076731 -0.11594384363482035 0.6606516563385867
1.183120340897048 0.009685610665409183 0.729055967147616
1.22666384547081 -0.11965296354760291 0.6597572107833827
1.291124149104661 0.05934537247958893 0.6514370509868783
1.2266075624778239 -0.1180097485857079 0.6596528259630574
1.2625006063382926 -0.05990443307658744 0.6370930689410415
1.1725683505453333 0.010542931102843767 0.6769986104681536
1.2129460438469408 -0.14068353863518013 0.6020953273023366
1.1502198046636636 -0.21043088844351132 0.6029035493682855
1.1443400737297083 -0.04789551526059643 0.7369444098312528
1.2317579275026702 -0.12445974103193258 0.615364963815388
1.2655247249614376 -0.05414790150227944 0.6410072212866069
1.1507655869289835 -0.21095497562820142 0.603686242770749
1.2522829729449114 -0.06444746434378423 0.6608207194841853
1.1794400156890106 0.018511927213942236 0.7518608593057508
1.1952989697127236 0.06142324934565124 0.6795538754830588
1.2684164886010763 -0.022935905923058275 0.6464269222778896
1.273544237628741 -0.015802364504723387 0.6481089870682766
1.1777231702362911 0.025386312273947276 0.6863429151370326
1.1507906872591889 -0.21057324500910468 0.6028714243722888
1.146715695767 -0.19006209898179804 0.03890551717256496
1.1956526873353113 -0.2991972638817586 0.23472089774990934
1.178677154117409 -0.2989398569971691 0.23393310718141436
1.2705718616658146 -0.1966047827498052 0.06954123583401639
1.0934908310663616 -0.17334567527327316 0.025582515686997098
1.2075554695186952 0.16044984521363936 0.4948886901620497
1.1088746778159475 -0.3127621933580116 0.5498627823113722
1.1508642749166853 -0.038672985743208876 0.7377517323973137
1.0955858091386261 -0.2836312684048714 0.5805260053235628
1.0857915403591534 -0.2975471527540563 0.5771070919162824
1.1275411851564598 -0.3048895133390772 0.5928123599591473
1.2543407716884758 -0.06929394832316582 0.6485795111763082
0.7477813274807943 -0.019841570089913496 0.5753140031397308
1.1691054473102014 0.0037874292754197514 0.7406727083666453
1.2133942517910867 0.11735158237605958 0.4851388823770364
1.210222615186325 0.154531446492836 0.494876482663571
1.0554532938064654 -0.19342327306294038 0.6598103669434252
1.0310461781813274 -0.1690307421859849 0.6994120060084086
1.0693491107414843 -0.13016916665377742 0.6706233407626172
1.2549726489430668 -0.05671710341128122 0.6636689644625804
1.169439889935191 0.013468602675756891 0.6825707124404445
1.1343414043090405 -0.1715998959074927 0.06978566957438925
0.7927141738814214 -0.11616052673281807 0.011490819265971286
1.2612471318278295 -0.20614273689455231 0.00776790702157415
0.833539132793959 -0.11848022986041151 0.019135209693562638
1.1677693901433628 -0.17940278972679025 0.07750142969621177
