1.1422616130641217 0.18736267466924694 0.03968454856160042
1.1571074632514922 -0.002336258038426048 0.1927355772230488
1.1572842388311955 -0.003195127980073903 0.19000482515513895
1.200332574247085 -0.1578786581130931 0.08905928050392475
0.8287469461195585 0.302477585281391 0.1095396843147789
0.9303865517674481 0.3188001895858683 0.07086229919496034
1.2064866122926787 -0.17098466765198772 0.0429630743364684
0.95620647601244 0.3262615361859922 0.07920730226600003
0.8847627537506497 0.30403805430243125 0.04384506246494446
0.903098302925045 0.31228386544379205 0.037575042169191164
0.9249464573899857 0.3200007242242542 0.06838657063958031
0.9646104017315693 0.3213371085133865 0.048172483148891665
0.8810220627605148 0.3075651974602778 0.04398065251091765
0.9484428883727958 0.16794171793796053 0.5959639272213835
1.0155654433715 0.14396819446542253 0.5930784048960192
1.1452075469473044 0.11567925321198214 0.6292921101761095
0.9894450495077933 0.15996311646260253 0.572204104289824
0.9450281388108905 0.15961591798470565 0.5798309871100571
0.8537956303958794 0.21974038346568747 0.562563116013628
0.9944202986324768 0.1725825961147187 0.5548510828277742
1.2281626946055724 -0.27308488852193946 0.5264376152729611
1.229534873811673 -0.2665641052861112 0.5426574160872377
0.8879968794738602 0.22354776234080553 0.5455560102764778
1.3158306767753913 -0.08041195240358512 0.5815503037105785
0.9895371633896843 0.1369867349240561 0.5903614729645668
1.3246175348059097 -0.04901078132111936 0.6247259370905667
1.2995584052551834 -0.07946599842252766 0.6334253235833742
0.9489944721615728 0.16827384406814083 0.596218645316533
1.0248921571633929 0.14611115551412368 0.564284265118431
1.3327238007462228 -0.053359424695278435 0.6020485133547027
1.2270410798182496 -0.2600376412870098 0.5762983464393656
0.8846800467240712 0.23772439723538596 0.5630609463434766
0.9673770556125305 0.15652953791920332 0.5868802645807136
1.019559203202931 0.13854502021082737 0.5863597111977725
1.3260367482885727 -0.050145571050683735 0.6251315313715722
1.3003083881741873 -0.07841779833798856 0.6335890272992017
1.2443650866291733 -0.2993166681042325 0.139358010735382
1.300145050959216 -0.21674193306396639 0.363720764084583
0.9765778763602739 0.17865678278623953 0.5651518948123169
1.2896616604647448 -0.1411868652793391 0.6066626369689487
1.2429389096302401 0.09191432981017211 0.6440476179023946
1.3132310862014407 -0.06474827082618262 0.6138615078724641
1.3075080531628913 -0.15881951162389996 0.48438961340268705
0.9805357191077846 0.18461103205252627 0.32650782476144613
1.0301007451666067 0.15245174249558957 0.5572227098690874
1.220805189914742 -0.26485214924445444 0.5754235699787813
1.2682563001177272 -0.1763009000108795 0.5875126618083115
1.2925786407802775 -0.1385868776627941 0.6054138463844794
1.3377943400935521 -0.04878271471011608 0.5926655416813631
1.0020167618816345 0.13606942909326847 0.588850328850441
1.2963863403436449 -0.08423097531632617 0.6230538380170358
1.3328745547651266 -0.15443084711977306 0.2658136642410369
1.27743653573404 -0.25377011014290574 0.3417560012638532
1.1542833298195632 0.003758360101405872 0.2196232406294829
1.1471227582555343 0.07323661390921998 0.14052922530526146
1.1414471259944037 0.18787835664497265 0.03897147151528557
1.153222187673535 0.04292313719628016 0.13590595444047615
1.1304189930604736 0.14378509674594753 0.24401634649904302
1.1352925992810015 0.12127658409224473 0.23771051601545246
1.1346997230624112 0.12153093568653794 0.237994080782169
1.3166434535077798 -0.08257904142532801 0.012001169801183487
1.1800107125983317 0.11901904571333333 0.0470921378850786
0.8834231320372865 0.30600906536603745 0.027850201551240517
0.9091186903250303 0.3118282743376355 0.026314937099507496
1.1611401943406463 0.05568053570189413 0.07533557958429249
1.1955389873801892 -0.14377043671169432 0.10848429928636882
1.3045777566495786 -0.2097706133796251 0.4345270802737389
1.1635261149153564 0.09339249648266268 0.02294675223494247
1.1972416281917475 -0.33228351175635495 0.2158609871723005
1.175596698451642 -0.05086106471202001 0.12129288574491692
1.068206327867074 -0.37909379521204656 0.08082444911738484
1.178590643947004 -0.08387594288262523 0.14938541308110231
1.1497494698928534 0.11164489577527803 0.0895855375564425
1.165122470478579 0.06021779721467668 0.04901462194467632
1.1260669175585036 0.18476351167962868 0.12131174526814892
1.1356940398856352 0.17771059974214687 0.09151856233337696
1.180682508667985 -0.0465489530742591 0.08914594268557785
1.126423645058665 0.19620235463568392 0.1014140549125564
0.736256912183002 0.23318658215360166 0.48331509397540273
0.6964780698229589 0.10601635887418581 0.4006395864705148
0.6516498229983014 0.0208382308135846 0.4376956939688803
0.6752349471883434 0.08911240785722363 0.4538672999205495
0.6407492323623742 0.03819796382256602 0.524737539967397
0.8829185825250718 0.24138965013259295 0.4906364067066704
1.320796030376954 -0.050937659573275784 0.645207654196156
1.2013603648151872 0.10559760110409044 0.5299218167471409
1.025381680140498 0.1892926834495512 0.49160118966922184
1.2496860682283284 -0.23822598419901198 0.5295677158364498
1.124946646607654 0.16088017795948595 0.4628876495382883
1.337284903903253 -0.06060058827052739 0.5578413633145729
0.9907027582797667 0.19438218921619566 0.5025413929393707
1.3180742728508932 -0.1768345405285654 0.37106592991325016
1.2781560990819685 -0.21323442824367156 0.5455525896018187
1.2463160928543715 -0.2383844805485058 0.5482296951068832
1.2543336655874526 -0.26645476586397265 0.44791043933566144
1.3404693076769547 -0.19493502521623185 0.31113580151133746
1.2437028195817845 -0.26437279666611246 0.4786359775426341
1.3797381640954143 -0.041554397753424954 0.3889044123012475
1.3395149394470707 -0.07148225066431202 0.5406850306454203
1.358720561654394 -0.04944771906077561 0.5372988681503088
1.0133214197116658 0.18632688216578153 0.4899558451582031
0.99830997222071 0.1967632689254284 0.5027086394968094
1.2230530618335678 -0.2994295198262442 0.49840118547409773
1.1995461855763523 0.10517095593014947 0.5269072861203483
1.4177392940518274 0.027169825162060013 0.4861115871344168
0.9026338852565985 0.22933421529836906 0.49187429389066395
1.2574326746616293 -0.21136127290870554 0.5484017672589303
1.2484762489015822 -0.254625965996782 0.5012160036759283
1.3204430900523079 -0.17446740312274223 0.3735209358993785
1.2269795076743861 -0.26562769559818733 0.5562204521939762
1.3289525069345842 -0.08478718617841441 0.5406907114086934
1.2767615633236318 -0.2534981970492467 0.33973032048917773
1.1957915064702007 0.09383609995664344 0.5342267968890724
1.3376085241593927 -0.08831033600401383 0.49334408449150047
1.4137820621390773 0.08001184799999006 0.40355345152876865
1.2298908683101217 -0.27067887148360725 0.49424191996429556
1.2428549809341405 -0.2576372744702127 0.5120895037902251
1.3495353171930446 -0.055522734176940425 0.536648756714655
1.2331433190761487 -0.2554210590628525 0.5343031512341412
1.22547905316857 -0.25675880245932703 0.5460868256833962
1.2636449863433796 -0.20889837188329707 0.538616255478388
1.4185805356840575 -0.0013771260132316998 0.43646712201498516
1.3515079469687663 -0.07026068040385969 0.5443782597746605
0.9891703571159738 0.19598657725651947 0.5025144856681685
1.024957760816676 0.19053273909694468 0.490495029001341
1.2021967197693328 0.10571746979041396 0.5278697173690716
1.4119242692983391 0.023441828081792737 0.4843745563258395
1.2205185862450918 -0.2753010886584306 0.5401867727312393
1.3533125971853366 -0.10272065337167735 0.39525559726580894
1.2017236893307626 0.10318054322746129 0.5292503871783438
1.3939998119177943 -0.021937385970305368 0.45107871707168457
1.3143431719664989 -0.20433966625270195 0.36725438209089134
1.3464717365349799 -0.05889196127831564 0.5379951586938603
1.2425451655435893 -0.25845261670859543 0.5101097883312811
1.265476391122462 -0.28567318505952954 0.37977133312844913
1.1219158066927548 0.17919498929376054 0.4773750618881678
1.2463459015906864 -0.26217171468994493 0.4828159198090809
0.9717702402938855 0.19569015441809334 0.5012337178839843
1.3135885467033148 -0.08098128094215618 0.5380960685963032
1.36400916901124 -0.13807939614372877 0.3035901597142576
1.0831920592146105 0.17195478014782495 0.4736958208749442
1.1296322378888846 0.15356471397105054 0.21958833142291745
1.14998085410015 0.1765014217918992 0.008133563573104463
1.2650550373046343 -0.18041942284215295 0.092075658905868
1.118837688167389 0.18002751125978378 0.1911047858502002
1.1999079219215503 -0.14355372780952003 0.07832276772011593
1.1729861128520014 -0.01796741624393916 0.09291431976123476
1.1484986024701982 0.10693590188728397 0.092699305925521
1.4283125994230517 0.06751238974288754 0.41523902591547923
1.176622045680702 -0.039014176500482556 0.09824209689710095
1.1455080776494952 0.03327565116531872 0.22589752149769105
1.1795553963678174 -0.03178906451742569 0.10145317887896965
1.368652124026184 -0.13473081525726016 0.3038113124393149
1.1433448674284818 0.09883961545987141 0.14819202520941488
1.285824640832871 -0.17308254909536025 0.017689837657876017
1.262884130565638 -0.18125834330229296 0.09452257133141906
1.1860104537834104 -0.030048916542710913 0.032250678072549555
1.175385960459252 0.036964608268952315 0.013139246585303077
1.1796564284372124 -0.002416372119167509 0.037299941281625504
1.1543970672519777 0.04225778543335057 0.13760674747688384
1.1559903686413975 0.0480392524521811 0.10954405941875134
1.1412461613581826 0.09948213727362543 0.14672321194419524
1.275413451007097 -0.21782216379626185 0.01298548611406214
1.1615321059230155 0.05439435439464457 0.07604182673444093
1.223962228291171 -0.33781416238706896 0.13781481306719634
1.1607629427925303 0.05478499467716835 0.07601013968123738
1.1996820352270987 -0.1410328432944663 0.07637738117471482
1.2931825120245577 -0.09049870498172741 0.007726339604046395
1.2746642010898057 -0.16235852024697017 0.09337657660171583
0.8948549656644644 -0.2020664294204444 0.033374140635022975
1.2659201014925259 -0.1872790666613966 0.5649959486979483
1.3589982471365403 -0.09832464357955484 0.3915989571387257
1.4273438154928186 0.05302057556501483 0.41146379221963514
1.3519319884595404 0.1381180467132026 0.4095892930481959
1.3388455867164595 -0.13917859329533933 0.37911758722597
1.2524582807056106 -0.27205554032519785 0.45040102644659186
1.3817667463352024 -0.03348316318662947 0.38770222840900814
0.8915796085949168 0.3070541120161252 0.029581608862303543
0.8877786892973916 0.29983825990626656 0.031218640294002897
0.8729634419315246 0.30029733277055826 0.04011166331476357
0.9338953087990021 0.3128154443941611 0.051254816434105344
0.9299596393532994 0.3169819788376138 0.08213308623751914
1.4050182936625077 -0.1644697026172537 0.2524646493635263
1.3052314720103197 -0.212731130942716 0.36404096366606353
1.305365977824593 -0.16099703064917925 0.48319085018510677
1.2886978853795483 -0.22177521149090218 0.41022172081753183
1.2755064200576527 -0.24052208152218313 0.4243263535647124
1.3319536602801207 -0.10830746262318947 0.4662379865746935
1.35800820615664 -0.06109185594441735 0.37978113702635596
1.2571275016152583 -0.25138677034505896 0.4701294315837323
1.3608047298573922 -0.09864530892254031 0.3826817469703059
1.2877802894022494 -0.2014895112599735 0.47084331416838765
1.3336614321036677 -0.10649915503349039 0.47907168597733474
1.2421417702677218 -0.27527240996642277 0.4679304569874887
1.3812512017972978 -0.02880355999491102 0.4455667274429054
1.3755836325550064 -0.04127992297148886 0.46243404364510354
1.3501766936916226 -0.08416964750636691 0.4607054728979598
1.353197638083401 -0.06703086870114561 0.48162039401573153
1.1633321137954056 0.15367472531142568 0.4357184523907165
1.243069628268998 -0.2757589093114632 0.4667994964283295
1.3091979886114302 -0.14529735563351132 0.5033428081452129
1.3827652168347981 -0.028118756962575153 0.44677645514443753
1.3314494772687624 -0.10821988418939554 0.4804598385124237
1.358952434529499 -0.11236787216243105 0.36512504265735046
1.2835870309380226 -0.20513054455892465 0.46832447594978177
1.255541530242965 -0.25252895499294326 0.46960915307643347
1.2907654388770595 -0.21988165427493378 0.4118559175941705
1.2752289789094107 -0.2407342091636533 0.42454527674289366
1.3077867159806544 -0.18441196100406287 0.4133695966725526
1.2952598388782377 -0.2020090720364287 0.425152629745309
1.3332802712130842 -0.1412774215325907 0.2798363229633516
1.29073709614417 -0.2234763710281662 0.36239332852469275
1.412789699987087 -0.02906023467015295 0.39461809956796046
1.370775019153001 -0.0468344152464506 0.3869345007402103
1.422333993120688 -0.0128585651495422 0.4160297209712738
1.3756063556080989 -0.07680626353096631 0.3764453989407279
1.1268437772069717 0.16138688066423157 0.4650225170264122
1.3074186269539467 -0.252998091359915 0.38731437887779663
1.3301044191260303 -0.1549395655792285 0.3936917991953237
1.370747287254872 -0.044242574638524435 0.46023567988362046
1.418948502543813 -0.037053992483007114 0.38016351958646055
1.3617263573441107 -0.09893030915094414 0.38146429220905276
1.3607270316758502 -0.09964854393326839 0.37983849441037165
1.4004580456741422 -0.03885146920885818 0.38852374007847246
1.3589071105902661 -0.05762438752495935 0.3828404418410969
1.40154753055306 0.004894135517843623 0.46673370952461823
1.2923944130164955 -0.20015306588736514 0.46906218109009856
1.2567969178428484 -0.2433200101428845 0.47462077741110775
1.2870722097478193 -0.22322244701820537 0.412819692679367
1.3018685823195852 -0.19737219482735213 0.42611047973332816
1.3563372065856782 -0.11403214491559233 0.364691777561692
1.3067751736171829 -0.18535483026957955 0.4129346212395646
1.332945900265159 -0.12301189692805803 0.45470157803650935
1.3735243864102387 -0.07842104339765399 0.37715552489160586
1.2535591271110746 -0.20054908533349902 0.1142864506972785
1.1420206998345606 0.08526682126783314 0.20673537545444987
1.175621254009016 -0.08728624098621296 0.17407492651821954
1.2639698282690404 -0.23925065950983537 0.47517517103978335
1.303278755447792 -0.1962588110384278 0.4250686705074713
1.4275997552574893 0.004038641869891779 0.4391113951516701
0.9027733388324322 0.309946842191664 0.08540986349788504
1.2960538019000012 0.04774102001577685 0.3746786510210498
0.8930265539757087 0.29275230180823897 0.027928976329048005
1.1978898460396437 -0.17714878447113058 0.1185561704026572
1.1624630180980944 0.06094951999205733 0.053327798725550934
1.2125537896353222 -0.15348813056294652 0.0012826391814603488
1.2145337494281705 -0.18855705514742027 0.019052732175616205
0.9464672655067474 -0.4043566076136784 0.06100470509495581
1.0077884784505997 -0.3921200297312133 0.07282604132491599
1.1806297325446735 -0.045110509749790584 0.08953711363079986
1.0174255573843283 -0.3802089351509075 0.1323713438276819
1.277715076384851 -0.2743042674126883 0.44039280431235284
1.3520943483388947 -0.16731541378709913 0.35655952060231755
1.0184790030123736 -0.3931497138870732 0.08037415700277606
1.1895363141882598 -0.35000508037118294 0.36238856401356045
0.9786370003380895 -0.3961989704700031 0.1410743342455767
1.0197419038798117 -0.3807982074444105 0.139747494249578
1.0793103264782644 -0.36939318946322075 0.1429035400195211
1.1276676711320022 0.1928351127472805 0.10786337811683477
1.1337434001612934 0.19729267941239748 0.0600439307355205
1.1345154952986292 0.19651507149134773 0.060031439164667244
0.9850706785370633 -0.3795909841653966 0.298454994049262
1.1270090690931767 0.1948504246018956 0.10779008558100323
1.1493097910322092 -0.3511912603926959 0.1622168523951295
1.1400296228490703 0.18454350426974742 0.06231252904131512
0.9683333785136483 -0.39447281252016353 0.12961392882247402
1.3430781829392657 -0.15976735919271512 0.39741028634191267
1.1772155327340528 -0.08907584939680468 0.17753380889157455
1.1626186587950826 -0.0017474081991978446 0.15824289888080934
1.154685869926766 -0.0024113744886754274 0.16921291088727308
1.0355022347872023 -0.3675734821698029 0.22258603355205686
0.9114618524665019 -0.40093449749290855 0.278449666973426
0.8928462355543942 -0.3962802420348943 0.2676162376194213
1.3533681831485467 -0.16561182618166193 0.353873496909749
1.064714307707959 -0.35027760429960253 0.34055473362375466
1.1249329639090178 0.18136989700043848 0.1353992211939925
1.1313821573109095 0.17673381387655063 0.10813260353754739
1.3833233976389891 -0.14519442997635856 0.27008743072670427
0.9429865457907027 0.3247562866273057 0.07401655827322884
1.3754052688049256 -0.10795542327981522 0.39032051052663164
0.962191007411981 -0.3899223989714429 0.15216574966069984
0.8401822004213955 -0.3840088160293398 0.2993923505310647
1.012186488726563 -0.3810071740159948 0.1346721598493783
1.1546084160791281 0.1576761511191016 0.013271421683193063
1.1356180520414227 0.17692627263873106 0.1009445520447283
1.1753508985439964 -0.05105137409938676 0.12083682887725544
1.2294798986832234 -0.1990697351686599 0.1395765063292309
1.154979925780495 0.15829373560375615 0.012960879971934403
1.1779934918850898 -0.08421060397706182 0.14939744652588516
1.112774542334165 -0.3412482143274076 0.312102936187717
1.3365531238601136 -0.1551453099974509 0.3526789179102785
1.1591719625752006 0.13980282060801485 0.006682259313638417
0.8323991271528897 -0.39150543833688545 0.2548427817950394
1.196660724334464 -0.18170889502167498 0.11977916848936232
0.7313418913657088 0.25275615498213 0.545268856855543
1.26101998504339 -0.21410717367867704 0.5355266532595238
0.8904843818692498 0.22409485649409255 0.558031271841628
1.2550976977059491 -0.218511445010936 0.610866340707581
1.340707044565761 -0.08715150610890454 0.49103005916810716
1.307026104536817 -0.1097962425496446 0.5961715499564946
0.9770515176336048 0.17855726253287685 0.5647282809058751
1.414519584028966 0.024769248370813957 0.4867803595720055
1.0681496424012948 0.1548501393702839 0.5271975547985619
1.3394944153991162 -0.12643548068768773 0.3276160317257748
1.3162517862593148 -0.08053550900477546 0.5818218197616432
1.2336735236483065 -0.2398723365873856 0.5779002605989092
1.2919340879409447 -0.1613898126710822 0.5789340984311409
0.7721524947197977 0.2619607323636508 0.5470134009316752
1.3160094070263284 -0.08025765554307007 0.5819150331461032
1.3590915826879524 -0.11238496790029195 0.3650817039310894
1.2960083557938162 -0.15893149290637787 0.5793086623063104
1.3631960257779951 -0.1171093624596864 0.29641169069174467
1.1484293338083518 0.06682935431364001 0.14045274879324054
1.4070476089040085 -0.1575281153148822 0.27228490877778455
1.176913902529293 -0.0412007931459768 0.09396199300079289
1.133558805896655 0.1811674969025301 0.09556579311265967
1.3279704068065712 -0.20083860573913093 0.2699676460301603
1.1271096124947633 -0.3569254411656253 0.30154859723580785
1.1619507720678968 -0.35100468091508574 0.16605917101855105
1.263474563445186 -0.18077233262506098 0.09394205688129542
1.2000456040765783 -0.1262710897827546 0.03318320514202666
1.1771135233290408 -0.01098511298705973 0.041676809039439267
1.163021809737046 0.06079118016897089 0.07521593232556967
1.1414672835415018 0.08499742023212686 0.20689035950407053
1.1486867395764477 0.22491157311068655 0.37117398658239154
1.181522528630694 -0.37154054852219787 0.15216576493156886
1.3122830706530664 -0.0877542396734432 0.013053861430071256
1.3028534922874968 -0.14921644091546504 0.003930873915617694
0.9054981505322957 0.31065620459909127 0.08545788274549881
0.907361685219783 0.3117852104870167 0.0277505075917428
1.0506587555337887 0.3489072270560456 0.2884982652853374
1.183789458594049 -0.07319129760542165 0.09088589786557133
1.3030572667636164 -0.11886503899932954 0.0018702668739527945
0.9008640526213796 0.30728329721828374 0.08245510305241233
0.6247139647292599 0.2365250995373902 0.09844123666447491
0.9356867649847445 0.3190253127368692 0.07789345777953205
1.0316894042118463 0.34543411223276976 0.29001215815588566
1.2038055363616706 -0.2764753268603748 0.3439472793421139
1.3118989777556322 -0.08791574438413274 0.011989228936044038
1.2875139654466494 -0.20415102520777495 0.013673149571050147
1.2844916772183979 -0.16914232893069148 0.0259035570680044
1.243339495066209 -0.2166331892057194 0.3513324243058591
0.8809466857510628 0.3070891739313808 0.03775524605898806
1.1342298689645958 0.11797528945167723 0.23791117523429328
0.8867447903816839 0.30796963115523823 0.040679915257069155
0.9881060997126667 0.32732643496579783 0.04864349019731762
0.876531511018328 0.3063594401846892 0.030389550455790504
1.153765952777377 0.038861551800124516 0.22150077870385587
0.9540331259344015 0.3215543824377143 0.035047804972627716
0.9047985003975612 0.31631088522793505 0.08427204631853868
0.9534207030034736 0.3270835059815269 0.09234158581887364
1.347895592361823 -0.12651494265460084 0.3206117116934948
1.1448958990524716 0.03365140235055408 0.22902304080047564
0.8861218000093984 0.3078875960468963 0.03394491227071583
0.9495266924884405 0.3231978639027133 0.07875344440347654
0.9413118201277015 0.3235850109739502 0.09112902537113943
0.6344735771159549 0.02568115213168798 0.5175619418682587
0.645539398554611 -0.007800758366467708 0.4137109616784862
0.6483274316521914 0.006531585944011542 0.44021425731184394
0.6674938993513635 0.05517333669390556 0.4456744176111904
0.6267642926865236 -0.03198857460337323 0.44639584400513854
0.7659167269832423 0.29689415852736545 0.4577652197780502
0.6632801779226583 0.07550565888793326 0.4662534101523974
0.6545580683767582 0.046411022767609555 0.4728798678018009
0.6898341422994037 0.08592640827771003 0.3991470728165858
0.6318029464593522 -0.046876287969286334 0.410183085518927
1.294291299281909 0.08388748765959964 0.3785666142719535
1.2319215273880957 -0.12424455383941435 0.016133428779134817
1.1564633990799678 0.2465472639750388 0.3731011091684522
1.2096941056203292 -0.1576574901171668 0.006016218452744582
1.1107766239993566 -0.5310308483383963 0.349425917392967
0.9967431810598981 0.32469239331135213 0.0707400787948087
1.2490071864754526 0.05752854373331173 0.3689366210214473
1.2208464823445553 -0.1257451152413136 0.09142706692168101
1.3192652784670145 -0.13215578024068364 0.49678528319853754
1.265919124156909 -0.1908689883617587 0.07522971428485459
1.1601885137837087 0.08305014773440256 0.049336482233162116
0.8769147487470974 0.30468501993906827 0.04041422122481597
0.9870510048307679 0.3318791696866086 0.05564078944756856
0.9801535197981082 0.3314544257358598 0.06155754491270926
0.9079522402662832 0.30861958988220195 0.049034447350373433
0.9474849162178245 0.32771938496725994 0.07798812953198286
0.8032721435142776 0.13222536959077935 0.03061606898244751
0.8831010999515243 0.30210552582873973 0.044539570134538575
0.847759727792976 0.30086281305013785 0.06652121871868033
0.816901760609916 0.2898853794013334 0.04682250015090261
0.9174855383741942 0.3119093015686225 0.005041906945143226
0.977149434445721 0.3267961082266879 0.045229080412247935
0.9630745798931173 0.32346919670334984 0.04031737719124795
0.9055245996774275 0.3209178620754827 0.04623101739910984
0.9174954949807912 0.31524003080921403 0.05012892962117599
0.9964725201774982 0.33392363363017097 0.06405063644615794
0.9053300488061922 0.3095757600746296 0.04249732046698318
0.9656681842864145 0.3277521562521635 0.0379919903413084
0.8012510745420443 0.13087797500508813 0.028309173246025
0.9030933551634845 0.30985964552959544 0.0258428839965541
0.9111511208238099 0.30901342559406686 0.026758300057301287
0.9760083951130127 0.3228391817313181 0.04054553924518256
0.9106112650624354 0.3090527328109083 0.049050905529453015
0.9505506958810273 0.32398577966034736 0.09010525104158784
0.9076575735777936 0.31026890481916425 0.03896758507912157
1.139351351930955 0.089298132166169 0.0053752561764885964
1.1526034120610973 0.16978914185863836 0.008350162715907716
1.1901820886971137 -0.40567860674419975 0.3644727933000347
1.3285803863984569 -0.08603638907634714 0.5330172829797064
1.2052699516166143 -0.13220861744747125 0.006232135178588782
0.9170340093191953 0.32076304600542116 0.1455846312213982
1.2864779896927558 -0.13028462538955843 0.05868934738824105
1.2672489114306273 -0.16614734501623651 0.09092029549802483
0.8336730230460176 0.014312103728030823 0.013624688422664288
0.9142757238744537 0.31789871964624794 0.08919413754818528
0.9251885922890679 0.31929792829050285 0.08132699051032422
0.8522502795351627 0.31046675419810654 0.1314251302418512
0.7917120956708601 0.2890846361137278 0.07929387282243905
0.9031373963497202 0.32098285489400524 0.1394176892914878
0.9049404583959131 0.3154710179739162 0.048215856234608
0.899741521581916 0.3026771755394009 0.03315988652504265
0.9692590985932625 0.324429245696507 0.03889077260798235
0.9264618162639593 0.31805188646245597 0.047792207968710976
0.927921772425151 0.31656743582736624 0.03432263339805397
0.9023935217783219 0.3020569033817999 0.026422077516508047
0.8325497590048414 0.3038144276965937 0.10927410863176057
0.8987085389183491 0.30988829367986526 0.03205795207016138
0.9878869932840573 0.3302497679628402 0.055408603519648825
0.997141445323777 0.33335290017165065 0.065145954797039
0.9418932737362695 0.3208522278804615 0.04387841404287052
1.128418753553575 0.19482403654023983 0.10155127894151406
0.9192559818441737 0.3164849731346919 0.03502721602347991
1.1532639687711566 0.046822446702861065 0.13666450431699673
0.9819028894688486 0.3233307510048711 0.03109472482739073
1.1469369423213749 0.04261838791652428 0.22323437356690512
1.1357801675868728 0.17948273827858685 0.0977767553410791
1.1293828951396279 0.19716261742100727 0.10669972262711713
0.8835743747239988 0.3052932891936244 0.021244477924240446
0.9775581439840053 0.3270693956985582 0.04345744963220266
1.1492446760467345 0.07002340927655837 0.13942619516552845
1.1477045172814826 0.08743361250763027 0.14496170193258884
0.919258547350168 0.31887547497010615 0.08443135202409024
0.9185968911375397 0.3170185983815088 0.06850210239910393
0.93029981323145 0.3192523600173658 0.06973933293572987
0.9350414180602229 0.3211107636928645 0.07114885705200358
0.9017990573893542 0.31164004560617187 0.04234774994042789
0.9453547521573569 0.3202008336918105 0.04681567407245346
0.9457940645171448 0.32123555723444497 0.0499471757381742
0.9510159076346625 0.3250878477353325 0.07773535847263258
0.9477696262997171 0.3208611766097036 0.04033269387286875
0.9123869617113556 0.3189056196655393 0.08396669002173951
0.9082991944102758 0.3171890518214404 0.08865324336771785
0.9459525150540316 0.3219083000979772 0.08990048395898231
0.9491099810147929 0.32577390679664475 0.09608046721103047
1.1961918475722655 -0.18227049650052507 0.11371691600197575
0.909538822473337 0.31259456654474604 0.04939937530719529
0.9126500482427247 0.3095787531649563 0.04892364956024409
0.9365581207706697 0.31847611120365826 0.04903180549003405
0.9937941319194366 0.3311588122534914 0.05727435630086042
1.000746775330974 0.3308167753293212 0.04384447071877018
0.986745892867873 0.327052506117429 0.05495444023974505
0.9863061529237527 0.32885126177855994 0.04174350837757412
0.8757423125076969 0.30448081787861625 0.02517121772928732
1.130295115771034 0.1834768646108742 0.11738409302867847
1.3528096358434993 -0.07935222281294063 0.46197387127824285
1.1725143040829522 -0.016422410886633987 0.09482381212901903
1.352102411357734 -0.04528671267190587 0.5312616827944083
1.4022264123059358 -0.19382411530808774 0.02160518348578
1.1788531807270886 -0.00395124692513335 0.039251680508536335
1.2561545640086536 -0.2476079021823896 0.4681685909188893
1.362259249589215 -0.06860268397786307 0.3651602878230342
1.1371615093143816 0.1492166088950242 0.125846544353303
1.1570981785631318 0.030891185140882182 0.2257195853319427
1.1468701169985707 0.06889070783833162 0.14002090388840038
1.040385614363899 0.30329078959811184 0.34549779175655715
1.2972026599176445 -0.1997712941620211 0.4220154434985979
1.1254033066746416 0.055504913072801365 0.13172990624562786
0.7559022743344457 0.26492352528622476 0.44126535122606114
1.273662432082503 -0.15343233080757024 0.056895718921381455
1.0257925276004443 0.1520921288011845 0.5590163650599678
1.2607154228317796 -0.19041881841410202 0.5689969163795539
1.263002876843089 -0.20014565951589347 0.5684513798549062
0.9719178790555105 0.17928922582644446 0.5634292797040885
1.253272156940568 -0.2095413518231215 0.5887285894826633
1.2127490124247942 -0.2696480267417023 0.5851555115508233
1.2392096412501274 -0.23491631348679043 0.5792605896106551
1.2908375173788045 -0.15088186661923686 0.5827444856674546
1.2885523845395852 -0.15226985117476666 0.581024924733029
1.2876825558405613 -0.1526860434388677 0.5898718889039856
1.35115036429994 -0.06318598457172975 0.5351437209481347
1.0139327431400247 0.1538616254772851 0.5618965731229153
1.023628462210766 0.1530431374398855 0.56913911871181
1.3589877407786588 0.023861818974560967 0.5672708195131904
0.8049011787371896 0.24607357688910092 0.5493681689335972
0.8353133587119999 0.239867220846266 0.5519748451907702
1.0250702765795694 0.16376212690150105 0.5412807167039091
1.0356081535346817 0.154642730427339 0.5596519997117966
1.2503144950299827 -0.21038841165644584 0.5669818335879739
1.3365933167873578 -0.04760142900212205 0.5918401206694313
1.329422727533256 -0.055079562105009305 0.6011563281034427
0.861013742594352 0.23224679760362577 0.5357376355858179
1.3393431727124039 -0.10348762513245902 0.4693283217952704
1.2360901081279962 -0.23509754816024575 0.5957793329567451
1.246306563832107 -0.235359703168605 0.503995332378171
1.2419597415090777 -0.21880169841828057 0.586986061161241
1.2368325166959693 -0.238774208396606 0.578004407925583
1.2362911949311695 -0.254384060160735 0.5345306260989702
1.110381902577089 0.11377439555294355 0.5836164522881404
1.0762654373638725 0.15752054096385137 0.5229969052337324
0.9729990565816848 0.3047098809138227 0.2834191742513603
1.2276811124803544 -0.2649480808435989 0.5571958331396232
1.33900367075249 -0.06941782005951413 0.5329781284715551
1.08210416250607 0.14696380448550705 0.5427260128308475
1.4055987088519828 -0.015460690687749135 0.39750768394448244
1.1602894236861516 0.0006188339519293956 0.15931378384126837
1.2619389248571622 -0.20049243040945797 0.5695276096195201
1.338634115722357 -0.04961676758075795 0.583184347778527
1.3519516573388302 -0.12971445695319161 0.38432492301792465
1.2879281114143026 -0.1528644682724245 0.5803142795726046
0.8642658268595227 0.23331358997118912 0.5374852338357528
0.83095028818434 0.237589051523317 0.5519654994189338
1.3408729472867265 -0.15178103065763615 0.36247912026681206
0.9879319507224338 0.16956805021705712 0.5554458526341222
0.8728337617118598 0.22071765799909215 0.5424973773799735
1.251319196044136 -0.23294574527838563 0.5066544793412753
1.2420668819260783 -0.21873557555545098 0.5859494134891108
1.2142767101609309 -0.25852872671976 0.5997748642089817
1.204173258887522 0.09149177722912682 0.5603556202724747
1.0098046607447486 0.18130879825351442 0.32624663181783475
1.3540261743526116 0.020975750715629404 0.5677335268443073
1.4047313234920011 -0.015440333664924477 0.39802649644835597
1.3500792044638388 -0.08380713998228373 0.4619664801776402
0.8436455724302405 0.2300818617744138 0.5382074848566276
1.2260055927321645 -0.2656108976422722 0.5586391135118518
1.2494598150330205 -0.20986878979651458 0.5431097392274253
1.2799073623404666 -0.17254878641072224 0.5708429201094134
0.9876229905005474 0.17046035763526923 0.5558277465264183
1.2174170116649208 -0.2646288585977352 0.5884152312505009
0.8879641387306947 0.2242953171916362 0.5445188739365392
1.3195689855099602 -0.07691048721198523 0.5821696901577766
1.2864001693442617 -0.17166585530608458 0.5869870384968578
1.3037615592425311 -0.18893125252173348 0.36688110096871895
1.228708292213696 -0.2465268468231674 0.5765261878050509
1.2747851463723947 -0.19480659720782612 0.5886832044599544
1.2768243571370164 -0.20238233788773208 0.5196487366607272
1.2289785255117636 -0.25740356909082607 0.5354868268331359
1.0290955554846448 0.16463601765168256 0.5417822731257971
1.238785233258497 0.05554847322666312 0.5375939013396547
1.3565207013477476 0.02250102420131017 0.5673016055851221
1.3024988416255212 -0.14133261045320644 0.5799344625184943
1.2856449332463171 -0.15280949314397496 0.5915792331432002
1.1993108920265882 -0.29808919565290637 0.5206933251847445
1.0682289287532143 0.15594391536339458 0.5262432476521539
1.4068082838448248 0.01119706692239486 0.47123446220730614
1.1597546989367657 0.0026901308405112567 0.1610874189228717
1.145347916775279 0.07315743445338363 0.1457500758162933
1.151501099652208 0.07468665927642171 0.11543816436742738
1.2762577468131298 -0.21867073544561855 0.01199546422274822
1.2513375210869526 -0.20083894169824923 0.1167681348915739
1.147791622318337 0.0680638666355815 0.146560943690055
0.912294175911228 0.3173077980988914 0.0847100606544604
0.9869188812720608 0.33154388248654243 0.0490758581294215
0.8303078732666691 -0.0020086613911596274 0.0645137789970418
0.8961790110914336 0.3159027865244113 0.1362032935310431
0.8975014072645493 0.31803631017606193 0.26787480397356234
1.3498448882496916 -0.08087693509418514 0.3455971440303607
0.9025582028297663 0.32282604878396626 0.14041872529707788
1.2008203868868605 -0.18415438725640776 0.06693449424679976
1.1463294060685314 0.039067658901486 0.22564112360695
1.3091891925908783 -0.07972900096411717 0.007102395756876934
1.1501814522355147 0.0619271648440356 0.1537331363854033
1.155007779845576 0.04877601079861904 0.11143715850864933
1.2890303016562399 -0.15448102719535228 0.03363379122086396
1.258958173392628 0.18244492036640025 0.3931662675090841
1.159821646426522 0.055512094198955086 0.07466347809725882
1.1851161916939645 -0.06850155264781943 0.11634930840256796
0.9115333201334863 0.3130097814732302 0.06679337614624359
0.9173583014935716 0.31362589995445944 0.06836789436677648
0.9491157839450182 0.3256702175960413 0.07302721211786878
0.9401010845488145 0.315139029281557 0.03314532956915528
0.928303544150495 0.31468267463194977 0.030552143215897276
1.1685745420443538 0.17472079265228757 0.011410803731687347
1.3128070447106666 -0.08957271002647094 0.012410650518352995
0.9179183758855203 0.32019741301715143 0.1447705870068816
1.1669943125188098 -0.18653087043406735 0.09338321179430231
1.1789086445233465 -0.007481825789900642 0.04115072760191518
1.1880326833416888 -0.04322015178088057 0.12430013216718994
1.1817741925520409 -0.03181522733376352 0.0876138622100342
1.2063600473302927 -0.16021496363437748 0.004934344193171514
1.149519185188126 0.06361862356175862 0.13805569575501941
1.1338002077940246 0.17897890649721582 0.0978149325136135
1.228646109235072 0.03527117960912651 0.3998521899224272
1.350473437218298 -0.04439424872728637 0.5328000701388547
1.1603988852752423 0.029501954100669137 0.22961292392873922
1.2014953592972688 -0.14754328815197226 0.05293474182800573
1.1443125518561459 0.03772718583717527 0.22504172672729084
1.1570180370425476 0.018176159479064147 0.22135514042607163
1.2790747945618364 -0.18456219581342026 0.012538890504183997
1.183264629367784 -0.04912286568196311 0.08874260085775187
1.183326690179456 -0.0728592249232829 0.09146880220669562
1.2162338247337345 -0.1176143853688405 0.004659767287298888
1.2887771717314678 -0.17069974377792896 0.020126787750254227
1.1347479790084947 0.1794812264625545 0.10027382493590586
1.2746484415529835 -0.22474169996377746 0.006017725019415721
0.987418421939239 0.32793800272806095 0.041736029469474634
0.9312063530995829 0.31708469070260037 0.05208183706956637
0.9719590493183716 0.1646779056453873 0.5824062053770618
1.1959414053204398 -0.26877987783826995 0.6519841328627507
0.8703613469350557 0.22235877247939406 0.5652325860841856
1.3361587689387022 -0.05204501518665694 0.5828863214988544
1.3671190509441544 -0.047901810813339996 0.45838582789476945
1.1409993841149202 0.18524837704168462 0.05444666093873396
0.924247723507392 0.2089164984048164 0.5474183232944441
1.1885531145576778 -0.14800799596693004 0.1920050799329065
1.2874216072308542 -0.18236149560897807 0.5482078272224555
1.3249009621348051 -0.04788231754904393 0.6239810241000754
1.0282555355219358 0.31018702241951246 0.29570559625028636
1.2349972025744194 -0.2345604106135557 0.5960769927355614
0.8809010563944497 0.22422603325892076 0.5634995257015518
1.0763430133784624 0.15798839457782599 0.5215788523371145
0.9136821757376268 0.3089562209187413 0.0050257551378732335
0.8294348071434143 0.035112419837142195 0.012550439098875654
0.8750765637021729 -0.2145605352379576 0.07212532986478504
0.8543379294962961 -0.1120453437734259 0.023384543234404864
1.0755472178524172 0.1679791926505203 0.5203802112864864
0.8962186542673933 0.32318259303369956 0.1374958351552369
0.9003557770171255 0.3135706194086296 0.27026671072892583
0.6533447672918768 -0.029581958183432233 0.3366099627401198
0.6482987835019216 -0.028008716989320614 0.36095585108268935
0.9706013468960961 0.1638618304052919 0.5812641276252606
1.2182457922680356 -0.2573098670385576 0.6000881613576681
1.2020675893009525 -0.26423016674952393 0.6538900594826202
1.3207477744308704 -0.050818092486615285 0.6241165683334415
1.2292479036411663 -0.272148906418348 0.5267116968300201
1.0653770634231563 0.12447352524940669 0.6010953057108637
1.3506101420377092 -0.10380194542936927 0.39084384320773324
1.3143878850709712 -0.07033219388345113 0.6146221193163015
1.0854343114536391 0.13079778767189687 0.6250734409858438
1.3681034722442575 -0.10057778394819028 0.34418425268746944
0.8973384976339105 -0.2363181334496467 0.018040897756774754
0.9187441633983084 0.31097280025548457 0.007512693465538678
0.8985104452055026 0.18217635159305523 0.4651150890343736
1.225090684427812 -0.24033212718252095 0.6135992765097598
1.2161148341223793 -0.23899273453219294 0.6530810088422712
1.2214928676881698 -0.2650954752713197 0.5767231209318524
1.2917053914065946 -0.1386044238912909 0.6077524883487229
1.0385167043305188 0.315912437713628 0.2968932422752246
1.198560542606728 0.038625643597882675 0.5305199461446719
1.1581861974386243 0.014465839384109613 0.22082250778574064
1.0617212173812618 0.12150893799972362 0.601845838381152
1.3947822912460595 -0.0231090777548415 0.41550290653203703
1.1189690176409073 0.11731363323904898 0.5871638751600372
1.3390582793800831 -0.061544988440662696 0.5431466947304386
1.3984212782485628 0.11833653712906678 0.42068779414654145
1.267215193351845 -0.1811472019176108 0.08827761053171734
0.7447808058491034 0.2623054875025055 0.4368450149395997
1.3408705039476843 -0.06075124684649991 0.5459143870304928
1.3764230416829548 -0.04343267264722783 0.38798855720301617
1.2596035814006257 -0.2525358574257375 0.4577520257472223
1.3326622286023593 -0.12260088148855264 0.45058980492934
1.2754664714643127 -0.24083572990085678 0.42278766080288577
1.2579088814409545 -0.26515032823281715 0.43679214719107406
1.304835651085483 -0.1616576789844526 0.48251838219721677
1.3988062263146617 0.11796440132207042 0.4202750530988375
1.3159629835845266 -0.17665193147689884 0.38654164236396227
1.3743119967504924 0.1322164208615373 0.41478483972927194
1.2435396045337654 -0.2733721335680883 0.47010502873504834
1.3614997376479465 -0.09704440264035163 0.3855357807637638
1.3999405464650039 0.0033525405750824133 0.4618692963672366
1.3328768759372167 -0.1521790200458728 0.3968073008080353
1.3748115374176706 -0.07709534108139682 0.37358934939256017
1.435584709414357 0.06609499349363723 0.41606377500917446
1.3115642403068506 -0.17935354672673043 0.4145937095326957
0.6360647405837128 -0.00452667832334136 0.463671869745621
0.6437387798474603 -0.015354197373823042 0.4146254423985063
0.7359340249285751 0.24644716342865358 0.4993549428692212
0.6736814722253115 0.0967471857167368 0.47253944958974614
0.7134682554372418 0.2289807252224385 0.5533048157149167
0.7831816660728208 0.2591302767919501 0.36183526988745385
0.6859570519072378 0.017046861535768842 0.2900641096522705
0.6520328163931666 -0.0373853817937575 0.3396827975448069
0.8101818452421483 0.24118892983027607 0.25887919316362584
1.3005869288249983 0.04881007628967149 0.5539914550692515
1.1243564580620102 0.16155620405985616 0.16507453592628174
1.3135294178984935 -0.0737200056324161 0.6112165933592806
1.2426105248629682 -0.25959438904301635 0.5005428026863257
0.9094278337973449 0.23113584188287462 0.4920817333753469
1.3456892572067147 0.014340728971997119 0.564208827025503
1.2053320124282862 -0.31658508895194615 0.5650349199556715
1.1568748573746745 0.002784736498732121 0.22057669260722612
1.2484529150137291 -0.24268961339912742 0.5229008820093739
1.241846859245328 -0.2570658080099797 0.5136883332342279
1.227446429765351 -0.2732338711200377 0.5258268415958867
1.158471090770945 0.055822157741127754 0.07317210212307135
0.9368466180280777 0.3151289199662699 0.014222588757160093
1.2061741092291811 -0.16083172349210528 0.056540121465527005
1.1465573696011688 0.1480400342501209 0.008557367410979566
1.1421608253286308 0.1880874759252471 0.03842586245401014
1.2069624525711475 -0.1440950037617128 0.09112216111551774
1.165807094078204 0.1168060982719421 0.001815999812750102
1.2791252495130578 -0.17730578427546106 0.5705345096388115
1.2597580004280928 -0.19465292645294063 0.5780546185429003
1.335300668267081 -0.04978513272935192 0.5827966509560056
1.3416664216406815 -0.0764483754447598 0.5425675012104847
0.9986700593120545 0.15718537593073734 0.5777134673291329
1.3507084864341579 -0.18447994691291214 0.3043034314641524
0.8785268638471422 0.2238809574318168 0.5633653863881349
0.8235957155003604 0.23828314306173048 0.5522825226596595
0.8217534989460162 0.23073562294776195 0.5695116057487937
1.0294206417442098 0.16665074921327516 0.5396965167524215
1.031852130592057 0.15541685659025362 0.5664923106108688
1.029496263087566 0.14108948294763834 0.5867583419625078
1.290536375841853 -0.13953874147015988 0.609299549546769
1.2154063879670929 -0.2607765680968477 0.6220693556334567
1.409856715800828 0.022480263454885963 0.48396007439906796
1.1173720512429242 0.11575169821458342 0.582779303248806
0.9336728427792096 0.21312037012300777 0.548661066614784
1.3537516652112203 0.020614924895996367 0.5663387467520664
1.2239875168502579 -0.24601997613886262 0.5847796649226567
1.2803587692285134 -0.1652429277988965 0.5900042567965968
1.117535999292656 0.11578493526099187 0.5836840106126573
1.0245089805180996 0.13969319103936506 0.5866410616884821
1.328494014363315 -0.07431376756140917 0.5662119374557761
1.2083692050246952 0.0944455985161552 0.5606985429070477
1.343617672199784 -0.05731965351607249 0.567322618300885
1.3380223036261896 -0.048587003252835714 0.5826513333664707
1.3347143890639046 -0.04851693287036607 0.591458104610183
1.3313475900307026 -0.053951128874671905 0.6015083521759479
0.9318310538091978 0.21242549977027458 0.5477072481361844
1.2722095005210576 -0.25803938699308304 0.3359884689129977
0.8081296236971269 0.2463226753044534 0.5499276935742614
0.8256005973514391 0.2392087562452616 0.5521394040752625
0.8351401259739077 0.23105261564674962 0.5572106764243046
0.8431776119201828 0.22750885778341612 0.5604678306179878
1.334758002665808 -0.048387306098742755 0.5913124205197917
1.2175978187540437 0.06591972972996629 0.5676737872047255
1.272440762561402 -0.1706822433620392 0.5896833852968797
1.4091630518467468 0.02219990938837957 0.4832974103090848
1.2980493990627195 -0.1455475688223018 0.5853622791172697
1.118222944064371 0.11555830792939314 0.5830802615353292
0.9293674961364218 0.21283637777195885 0.5470932370348791
1.1243907869755532 0.1607895606227583 0.4614844704680898
1.076686669014748 0.1578899890979013 0.5207673583577233
0.8144924450638769 0.24719769609894193 0.5510315941535282
1.2881274878801463 -0.1589396170086932 0.5918900258693682
1.0278845144883775 0.15258907342063033 0.5603098076654334
0.8252703189964095 0.30101686557674867 0.25567632690928654
1.2874608228224815 -0.1535043176841011 0.5834277043471303
1.2003217013883472 -0.17319931015983947 0.0896122844835201
1.1748258249838273 -0.05369429958188121 0.11830403308437099
1.3999448223083277 -0.01375575161040421 0.456871721232055
0.9039413159780807 0.18343552636845395 0.46544616147459195
1.1359652505193196 0.08606855716192463 0.18303619314374409
1.120127160346911 0.16017872586220783 0.18008053171699956
1.1727206440650662 0.036411188158176344 0.017275861578640583
1.1594882528142136 0.0009784759809547058 0.1654098383972169
1.124784653229156 0.1886154509505289 0.12736440001436033
1.1570557866307496 0.17834967033950377 0.024791116255241663
1.2466205328990299 -0.2623680980654619 0.47592820813258996
1.2393473234051555 -0.24256376616758502 0.564854662617833
1.33907025174139 -0.16128989537512517 0.3946083872952677
1.2044875944553013 -0.3174772436614681 0.5640293026893772
1.2454362464652746 -0.23666542355275766 0.5602024839980047
1.3622954110070395 -0.07857420257842751 0.35003806544825267
1.3297049331926303 -0.20108384062462292 0.3082422161671339
1.1534835027840984 0.02912955105346504 0.2265828017446836
1.3610681218061416 -0.14440668219828368 0.31908242578698065
1.4038193471944993 0.009132488381053405 0.4666297149066345
1.2741886051452411 -0.21684742422711345 0.4989028335211998
1.324339360655955 -0.17144997103083703 0.3876841171583578
1.2594815366154677 -0.20919242773702607 0.5506812804183525
1.2419475248138667 -0.26043410358834507 0.5313539188432514
1.345419879077312 -0.07499668082370459 0.47951945839855625
1.3314393374117373 -0.17245387795980172 0.34152159342449195
1.3307900200612721 -0.12398422369990225 0.4543690701346037
1.176114930662493 -0.054677613743980835 0.11966885936704141
1.3692008979750625 -0.10035213395220843 0.34524878496641875
0.9702934861767787 0.17961108993264752 0.563338815076051
1.0338445514140204 0.3162780834012935 0.295353450010829
1.237388131994166 -0.2605445425130526 0.5141475588072097
1.337044112840644 -0.04826756721480585 0.5831245470554691
1.4324468512494093 0.06902714541753507 0.4121987180617914
1.22884573003482 -0.26887697002345945 0.5412112037081585
1.348067481263442 -0.07215106891450773 0.5428023671759163
1.1839123585478717 -0.11587910307476523 0.19061008604849938
1.0244322596721744 0.16525983265089472 0.5406522899022548
1.4331526097317493 0.06483876599595817 0.4150111845497939
1.3375424318383011 -0.060960518835464494 0.5562922863618169
1.2596767594049396 -0.20304680394025887 0.5674702570625101
1.2854289420749865 -0.20315374583596224 0.471197689954721
1.0758041349527048 0.14421037517711177 0.5425839937490196
1.3338934271457248 -0.06309091195896732 0.5560346973432928
1.3315582058561404 -0.0643400041430997 0.5663179172867316
1.2341930996956307 -0.25727382778768515 0.5341096387819988
1.2187563279609037 -0.2680395461084828 0.5778780262136252
1.1876520111189137 0.09495729479506831 0.5309899834929155
1.3393701716088202 -0.06159879152991543 0.5337776500896396
1.344685289194274 -0.06375901629603664 0.5354508486657394
1.2683079767384697 -0.18570738882250026 0.565626941005597
1.2482247071471875 -0.2350226903603403 0.5572492811811713
1.2333682284349834 -0.25461058823168514 0.5644794268244269
1.2708695733903141 -0.19755034478526667 0.540759124901875
1.2002234791588506 0.10608622309992377 0.5288036837179533
1.0235649353956688 0.1886741521710178 0.49239564135879377
1.327935711392172 -0.07456061352358212 0.5651357076911623
1.2506852717296368 -0.23996706178787797 0.5208748041921041
1.0830553543951993 0.1468222740714875 0.5424883370255174
0.9761465659358493 0.20172370530716854 0.5127713480916896
1.3535518000775681 0.015153164973120692 0.5641986871684779
1.242864387789453 -0.23827488152159404 0.5574887894907832
1.230650258084438 -0.25633705159890496 0.5556791304291764
1.083052788889205 0.14680404065388508 0.5421898831615124
1.2644146381416732 -0.2122246725718746 0.5195954107861311
1.0251656889691674 0.18894375936345575 0.49121248496934555
1.2170641935072268 -0.2945229590703846 0.5378601642117786
1.267175366925457 -0.20231919284436017 0.5395575518443962
1.2561370941345018 -0.21136597633636178 0.5469489578644371
1.276445639585475 -0.18873859523825587 0.5525738908404421
1.2454258622743453 -0.26051085497600823 0.4678429243663018
1.3431853233562663 -0.06319816308976822 0.5210046676621971
1.2248183742915586 -0.27195786784698583 0.5412363090168171
1.1911957078987712 0.09532629243848234 0.5318709293845814
1.143169680019156 0.06924695430611916 0.1713426168216703
