1.3066919935545798 -0.03725567470049418 0.10963746949849718
1.3062315586331437 -0.02292075563249618 0.11459363210981177
1.32525041662673 0.0887315788998766 0.07640331008874757
1.3033544984965033 -0.05654730873248104 0.11176908073378033
0.9733132299958172 -0.06295356164432686 0.33902623667456666
1.3103522819485391 -0.03929313135048673 0.08941647271159692
0.9767029987708113 -0.04369413643282094 0.31295873177417377
1.3229438545373142 0.07885610069323423 0.07418779609050397
1.2947724578876176 -0.15383617422316753 0.10454321871861616
1.309074145695078 -0.06508277935135487 0.06645971622040214
1.309062612884631 -0.06446594635780967 0.07114257002761626
1.3103302191807273 -0.056951685733571455 0.07390237470151817
1.3110448773585404 -0.05717007657922846 0.07824021570924344
1.294413185770864 -0.17038925153093487 0.08908339229683016
1.2951313539344653 -0.17305829800088368 0.08924013509968631
0.9848412768907551 -0.031044605987196494 0.2209987337585062
1.3126909353365903 0.08816882162488149 0.14725742666376185
1.291876970325589 -0.17426996389847993 0.1021277765566575
1.3252603198009183 0.08331611741163325 0.06558063322842633
1.3226655628069608 0.053579901718347145 0.06621406422396348
1.3103693304509392 -0.03923116991609765 0.0916772796291303
1.307583028518252 0.07836578388385984 0.16892875271227936
1.3083915788159004 -0.031638230374935405 0.10545527442306923
1.3073981274811928 -0.034295789084477946 0.11970057524901634
1.2944738583823465 -0.1718845994942022 0.09581674376150229
1.292759857107967 -0.16302389108505722 0.10367111260687345
1.2933163152120386 -0.17631014313789528 0.08164901518843326
1.2935192676045801 -0.18253942773725917 0.10235797051300644
1.2977123216985404 -0.15812360619392507 0.11650720898236955
1.3116907147435768 -0.025567447488716644 0.09008728740621574
1.3032514553422914 -0.038601241071559045 0.1219888587740483
1.3052060159998007 -0.053302369962595186 0.10790210275258971
1.30018874202878 -0.05280364642386637 0.13465649933607793
1.302615897201349 -0.06961033587441356 0.11625199854248969
1.303272640613656 -0.06919701154347901 0.10624929118581328
1.3225279212214076 0.045657793281178805 0.05933544008856462
1.3202682425135919 0.07369544223580604 0.08502407022835978
1.3109810708311755 0.09008409864680544 0.16039027353415847
1.3096705925658085 0.060508476555515944 0.1536413386727613
1.3140175846079103 0.09295433468161196 0.1518369395947552
1.316014515808149 0.060794062475085564 0.10603119414477025
1.3190415024806015 0.07611625122871324 0.09698674424744258
1.3272313021776512 0.0889484537137255 0.051458201492041944
1.2938856850495455 -0.13932583029625967 0.10938068426588643
1.2930165874970498 -0.12385121962629864 0.10346479125475838
1.31121511166927 -0.01727767979241457 0.09984947455371085
0.9858549106437451 -0.08095882505887175 0.2583076576072365
1.317592003706693 -0.0402946055098532 0.11845112216066855
0.8887314728203037 0.12248588999820065 0.21868803490012567
1.3108525802799988 -0.026082434092177476 0.0900501505030098
1.299431462594967 -0.06491677582706634 0.12152020515821071
1.306131147968273 -0.025629512734069326 0.11973927911016347
1.308417402282771 -0.029502210111745253 0.11449770294465278
1.2982153778759766 -0.1325247784137389 0.0979831022891311
1.3097219887862792 -0.0602426578103743 0.07128540607874445
1.3085324796739712 -0.07022529635321906 0.07913274711774942
1.3099465025200914 -0.03427084311405437 0.0897624726945887
1.3000310433815798 -0.06818198319792135 0.1351995599497524
1.3088149081732894 -0.03868959007767758 0.10345924422364661
1.312770912869908 -0.057402107793763424 0.07650246718726539
1.308557049574489 -0.06642583858971385 0.07650712105235069
1.3067524154527916 -0.06373027527400543 0.07943815505527496
1.29984802269405 -0.15947683107192745 0.09805549574601358
0.9822695228393741 -0.11115358748927484 0.3075708722500643
1.3164861074701264 0.11098404264003925 0.10634383359319433
0.8501700168108712 -0.2205808104060143 0.27769666240568824
0.8512871951446144 -0.222016049862658 0.2794319116297501
0.9818209341199733 -0.11411557674632711 0.32268462034096146
0.9816560274662436 -0.08028763429434704 0.2860122574862558
0.6274152246268443 -0.24596631253208834 0.24374753142653738
0.6473886107198794 -0.24800566128379486 0.2368646373307488
0.9811462647088192 -0.04503821027644683 0.2640620599329466
0.6160295201912831 -0.260215648274734 0.2605187606188757
0.9747668655386903 -0.056245504798220214 0.338493596331201
0.9709884911942837 -0.05073810597017303 0.35387347655882806
0.5740193151099504 -0.25707110841753433 0.2696577607583741
0.9773117305918007 -0.04758095210154689 0.2839676280862875
0.9771815477260475 -0.04732717151078836 0.28380425705134016
1.3201062817407916 0.10862978235089393 0.10937429107748642
0.468585703880418 -0.2937518388276459 0.11869704837474693
0.9929213268536046 -0.1685260445213963 0.03401157817050171
1.3153454874455832 0.06739973428931556 0.12450184406784537
0.883167267849494 -0.21888542459197602 0.28045949130841663
1.2978984763019525 -0.13085531791883742 0.10445378459412336
1.3211261833255463 0.07344271542426295 0.08504923557289512
1.3095291902811965 0.07695136929825441 0.17243886385715612
1.3059332098411431 -0.026279018759385542 0.09926091731621423
1.317172435048363 -0.034433148617601717 0.09165238066744497
1.307744487864511 -0.05412648406999443 0.08856879547415719
1.3044815800044347 0.08364571134498089 0.16755431122375342
1.31781852314667 0.08473790453435193 0.07025202865569558
1.29371933679451 -0.17260355113677406 0.08977427188788578
1.3190876337223898 0.060521208088788025 0.10601055730868492
1.3083964677246769 -0.03888944772828529 0.09735416454549028
1.3014365419765 -0.05423045172939167 0.1351483831033935
1.307245317742769 -0.038595952588507565 0.10986877599498435
1.3082990656190532 -0.03859038205302667 0.11846737934930829
1.3122153322622836 0.08614569088786617 0.1463600298508485
1.320330043334792 0.09138848144578127 0.10625605260932947
1.3024797598954194 -0.05408978591501201 0.08609447486755872
1.3101505831223506 -0.05419054522802469 0.10211785771288984
1.310767463124634 0.04372864476408056 0.12422678027085077
1.3084192826323005 -0.029413761212057965 0.08768510954322917
1.3066121413778973 -0.038778170210092444 0.10597898310617015
1.297231704358822 -0.13763348438062728 0.11081184963188306
1.3190875083657545 0.06224307940942708 0.10594560690202304
1.3189068694542954 0.0926110220314893 0.10572624845983736
1.3053838970652833 -0.022261796933399802 0.12207122591822639
1.302214254541866 -0.036211403002359255 0.12292982485251613
1.3036675140148333 -0.022974359304966496 0.11076509944170798
1.306563879073309 -0.02579595108918653 0.10528854226333806
1.303649964085892 -0.024012927276195528 0.12140389770502669
1.3035874111248802 -0.0537945083605762 0.14265237231832728
1.2114713440982712 -0.18684262330490498 0.10351115754023787
0.8411350000003495 -0.14882479201400578 0.03981781546490604
1.1002515526359815 -0.18069579203240593 0.20164401399980747
0.7425942800582703 0.06308477870232121 0.43726058499998643
0.4133028636107561 -0.046952527536631816 0.38328863040475625
0.47000749883792636 -0.08151782946959774 0.46408630950895713
1.0525890795475448 -0.17996466512663112 0.14186115257550824
1.0758739491968328 -0.18006554587888424 0.16270871316476843
0.9744866934588075 0.1663222278641836 0.15569350514042668
0.9340406884726775 0.1859166138399857 0.11876814125653823
0.9410833496001487 0.17580227639957968 0.13755303675992714
0.8448337728813442 0.17871044065135244 0.1269490014585335
0.7030181874427655 0.04778477807314063 0.23506592631006917
0.9852887374004382 -0.11521992169453199 0.30954006829474423
1.0650156828042725 -0.08431087715622176 0.20471363759783934
1.0538184520698763 -0.08659597192184343 0.20919366436914721
0.7130411398960419 0.05777811110393394 0.3233795035095568
0.4321075497929421 0.025077267788162105 0.2734751210163573
0.6729307146225949 0.04333545584269016 0.38302886011726756
0.6881997169063041 0.04372430429058349 0.19215569192648196
0.6899988980143661 0.05300605038112849 0.3998208828414853
0.7697306069703416 0.05370478043146942 0.2309167783776207
0.4090759632252663 0.00813886328079988 0.24354882549001644
0.7326202793710763 0.059574569622573126 0.4225555935576253
0.6389727303310764 0.03947883153609588 0.23127988954133016
0.9569090607012001 0.15137901180602498 0.18013131110367553
0.8098804569055886 0.22020619777101658 0.06831804999074365
0.8956873244778336 0.16856133241423166 0.15074210608125327
0.9772263000448476 0.16885151735535864 0.1495323988810835
0.6929485396428419 0.05266996924190437 0.38211729800456595
0.9626447535490925 -0.04576132610974737 0.32102533723788795
0.7738467547685488 0.05359614323740747 0.24795448443743595
0.7610969821060323 0.0649867561687194 0.32930990655122017
0.9159327344694574 0.032404923308580136 0.6373094984939911
0.9786183228014735 -0.031846173528519595 0.3100408680527451
0.812272010793734 -0.1519934943626584 0.005948471046073878
1.189638731068868 -0.18683643382103732 0.073806476875518
1.20249518222802 -0.18548189269836435 0.07524714584142789
0.9287698807067741 -0.1631462548306839 0.04867727814248779
1.1727607136928384 -0.19424020040605328 0.025778301266676573
0.8681820103097735 -0.15800862282020134 0.044835250049115594
1.0717341716728725 -0.1733937210177725 0.09631313253289875
1.0969974197403758 -0.17769094647566241 0.11276813394312768
0.8480291761933145 -0.15461949649796303 0.027431988371202642
0.6553154121960816 -0.3146329636560061 0.03251271238665643
0.77986725789183 -0.14878251548875276 0.0074740191856113025
0.8977450536461902 -0.15837062144377256 0.037035090113719527
0.9289156704736214 -0.16402795072502663 0.04876120440981735
1.2143594356188174 -0.18892390385111746 0.0923233442230682
1.2446408351537883 -0.188723693634973 0.11204707474212494
1.320961213993499 0.060137475758572645 0.04915215258135186
1.3098542400365147 0.08320621098163894 0.17163242895272823
1.3206690076766279 0.07042522451693412 0.08282171084203238
1.3248442611283764 0.07298623707162832 0.06016038860106754
1.31552938562956 0.044760651098930904 0.10313482125150486
1.3101751530228682 -0.036826481003010336 0.0980149977180238
1.295861180265149 -0.16024316752264056 0.09261641236680695
1.3088536433735953 -0.02130005103393451 0.11789197672372786
1.3083399318821591 -0.020748961719508907 0.11845274396213767
1.3125356184654606 -0.017000815952485038 0.09147908295394025
1.2992901856669903 -0.0524697590257599 0.14405583386792387
1.3125501598351548 0.07617403280279422 0.14626756366273952
1.322065605950442 0.057195531810982914 0.07153361221662724
0.9818171734209145 -0.01353593896597527 0.2460741662471797
1.3093595827536433 0.06009811377509022 0.16204192555205843
0.9928865403873104 -0.12289827415437049 0.2533734010679396
1.3131817065637676 0.05163855835107167 0.12601854183306127
1.3089917863856897 -0.021397282732882106 0.10311874426302836
1.3220963183260892 0.0544024997939383 0.053519229106864685
1.2975610162397402 -0.06344465801527699 0.1459875482786508
1.3119247555816713 -0.022619795896826167 0.10422890262519502
1.3165624496610207 0.057207280078146905 0.11020506867353053
1.3127195166494374 -0.023117626269528513 0.0856971256728345
1.2977524358218346 -0.06898309044534923 0.14297087218945137
1.288289639493371 -0.1787037340713642 0.11462975832514566
1.3096451451688438 -0.028442934791323538 0.09859238254539981
1.3205407678387218 0.053577508190091994 0.0721809460464975
1.2988459217515071 -0.12650349964627683 0.09775304935899687
1.3052778453518243 -0.06979419488444183 0.09482373117501819
1.2930800179545088 -0.15762233634854184 0.09170658174263036
1.3137658684842393 -0.022851531348049736 0.08692970262415578
0.973953489010583 -0.03187055147668949 0.3077914685890235
1.3078652063042995 -0.03347229784286032 0.10630803643902809
1.3100565656458798 -0.03883491759193225 0.08940526896231749
1.3064406535008146 -0.07025406570101911 0.07163791677198184
1.3085003883753359 -0.06522677886875439 0.08434950266947183
1.3116045947351296 -0.02608185431773924 0.10278418307300718
1.310632077958516 0.07514518388819535 0.16057495519710585
1.3085727191539007 0.09224605402261954 0.10552320204981935
1.3191495599002252 0.09506610039457009 0.11863133015869387
0.9750697898478791 -0.0346434735472565 0.32132221308942377
1.3117901225553652 0.07162343024581563 0.15230343864342366
1.3278890484430406 0.08924580748743338 0.05201600326254807
1.3271035637662862 0.05294504870847838 0.03645384665241336
1.3119547158175067 0.040635360101136886 0.12117104775496745
1.3141833060797694 0.06400578957140812 0.11110740140395858
1.3198763776716618 0.07533312482366039 0.0970665024066486
1.3148592290572765 -0.05772301294532722 0.058599992296267
1.328392229977112 0.05468766655225865 0.044444117760022994
1.3239813060510102 0.05680794084683738 0.06651984039660519
1.3154524166554893 0.05867770949275464 0.14177597274182574
0.9890199776499742 -0.06112076537103173 0.23658513904278067
1.3127669014575787 -0.06861234819646622 0.0631918058470986
1.3155523258938189 -0.06262784593188364 0.053392050882963726
0.9773112291652595 -0.0539249301874154 0.3078453719422001
0.9668393119226764 -0.02123178455252961 0.3202560549062454
1.322426758416725 0.05859448835649861 0.08909366370613458
1.3215300824044647 0.05339183934364167 0.07202977377912223
1.3244984021715993 0.0704909819069357 0.05873325815176944
1.313170800536497 0.09072738972518746 0.15052592856368818
1.3162054339637024 0.08727900888840345 0.13947487933562464
1.3297342981145732 0.07154515286186403 0.06222581545031014
1.3222714415455954 0.047956500993914464 0.06276998860412286
1.3053415265225539 -0.0659769129743557 0.0499843012655945
1.3004845836880747 -0.061846423593591826 0.0502991618769002
1.3136799991890626 -0.056704901610020286 0.06341121521541737
1.3055755673606484 -0.061157224564928114 0.10837542590309202
1.3286574846173949 0.08050475198667684 0.039291129561716875
1.316352602653538 0.08365816082582356 0.12343563887592879
1.3245840207535053 0.06968618447355635 0.07800543840091656
1.2994798502561906 -0.06555216552002996 0.07686197434771014
0.9791513392147451 -0.0012066665672523513 0.23716543057713757
0.6922242916824288 0.05282219920588993 0.3387951103782427
0.7399946341555363 0.05752427566964746 0.4060271644982727
0.7332851082863598 0.058355922927348924 0.4098085787410852
0.7295039134176591 0.056054743338461055 0.35486087943588274
0.7284207067320807 0.05644253800713894 0.35965561404009705
0.5482622245777051 0.25273633864737377 0.09060446970949165
1.0488097650283734 -0.058907335426849894 0.20757441704147084
0.859635821698582 0.06822784022206996 0.21078945433644414
1.0750583789276078 -0.17504161233661364 0.19585825684569436
1.0647588270585544 -0.1610829002833185 0.2079132090179332
0.8690037857324455 0.1234678163572509 0.22402075317428505
1.1746552285220417 -0.03757878926275504 0.2252556727277284
1.120981654057971 -0.07430417405679535 0.21794496777483907
0.5780008298818515 0.24893341007202885 0.013757359916551026
1.1513999430386832 -0.10040935646088389 0.22196711376615497
1.116499151493116 -0.1484093131159021 0.21199671708222567
0.8133404880746653 0.059788145989955854 0.2639957149337171
1.0071736868250767 -0.20139088761398938 0.19992607966099563
1.0491660912641976 -0.13747799514412407 0.1903407158823729
1.1297716613248099 -0.0750979322714791 0.2169833570254962
1.1447670727519892 -0.07492451703612879 0.21949423476086238
0.6695198859328713 0.05239877191362963 0.234432123162021
0.2560646043231767 -0.08923477610352748 0.5446278850072517
0.7022017396770934 0.050352266081526764 0.24752244279389402
0.9987482793319913 -0.09531189341722346 0.20972160383868932
0.8144368572069496 0.0666244270043892 0.2896909419664446
1.0671557712820174 -0.07722231983065342 0.20295641962344213
1.0251510818926377 -0.09648915675322112 0.20244446312490005
0.9117258911456148 0.14427655556351837 0.19318485423266907
0.6217425234881873 0.22706706043815217 0.15298909242974545
0.5981814931713458 0.046044992505839044 0.449401030397496
0.6338274045571026 0.03758820667998153 0.211709854091934
0.9170934742339654 0.03658541627594447 0.6225176662425298
1.143716333434952 -0.17621311710217746 0.21938285539040336
0.550416541033556 0.25273220187840906 0.01779742211322688
0.9936448226742058 -0.13757989441903895 0.22338022777666922
1.0512043274757659 -0.12308229769498258 0.20656879044356025
0.7324292358588878 0.058837507863596095 0.4100314001603209
0.5530088535731252 0.02981285560618918 0.20755473604972963
0.7860272202718761 0.05511503082634617 0.23684713441054583
1.0840985980384943 -0.1428140980474364 0.20796802120671565
0.5787228841011469 0.2489624458026789 0.013347544592056004
0.6114664759882515 0.03932149720661693 0.2477495106691503
0.7066134784213247 0.05000348083079453 0.2619670685047488
0.6729679455432773 0.033698304104111454 0.3751833837582126
0.6726902179177827 0.24463977294782424 0.06670060466469963
0.52596134183716 0.25489629615181286 0.11955816227653226
0.9239924766573893 0.15930112807798302 0.165842785742921
0.7041878902066969 0.056136902860711935 0.3855596225489073
1.0013469850599606 0.19994760966310743 0.09374145682941482
0.8392752089591227 0.15257267335687708 0.16888103884297045
0.9857357591618978 0.15839796485984614 0.1706579691482677
1.227911616103853 0.18544166888801428 0.11703469403410871
1.2260050670376614 0.185452198845379 0.1179358672156603
1.0163945448474223 0.20021485433997555 0.10088768604200826
1.0547963591818075 0.16068177471995604 0.17365792579623474
0.6779609003270508 0.053097588146657326 0.38661051856173856
0.7772776405199195 0.06672891175990703 0.3172433588902166
0.765914374922076 0.05495314840144294 0.2687383638559666
0.9770148860794237 -0.01728296239937377 0.32023458758245127
0.6874460101365969 0.05273926403945817 0.3837042503290746
0.6912700142962507 0.05389891085080212 0.387795859565923
0.6739888499811144 0.05335685309020999 0.39098743950051684
0.7514777406967212 0.06136301315134318 0.40862900414212433
0.6807607407763498 0.051861720583659565 0.33653724934163876
0.674728642164304 0.05158632380810246 0.3852684817634362
1.3113036134537879 0.044984796597626886 0.14163902061776668
1.2973452774703986 -0.058164710967181676 0.145944519613586
1.3174197636897986 0.07064679236981686 0.10808155861080326
1.292072025250107 0.10267765343737612 0.24081592548396458
1.2956062048689603 0.09376117699510456 0.24205523251964323
1.3202313876628153 0.05959025878895918 0.09069252491099622
1.2994107787501434 -0.06597620000849247 0.12799818948720887
1.321807872708277 0.0587242363914231 0.07723984625522551
1.3053218455308127 0.04380258950932481 0.16650424569863098
1.3251515102414828 0.18212571950162904 0.1280929591034914
1.325691170556425 -0.03797025453041014 0.034805755546434725
1.3080743011719704 0.05606183382314489 0.12689735452479223
1.2968210360215977 -0.132318425722465 0.09717395654746497
1.2975993753701403 -0.1362666896468543 0.09709549896335012
1.304579232823329 -0.02484957900582163 0.11402006282502253
1.3065277763623442 -0.048524817052205904 0.10574426847616092
0.9933896592430642 -0.12554896371203839 0.2371351726192934
0.97193455772085 -0.04904827893943109 0.3403513816662631
1.2914472477798 -0.1716468763049459 0.1023835746057653
1.3084059948289593 -0.05414091183523784 0.08829022952616405
1.3071833915649336 -0.053550909079040476 0.10160962273945806
1.3074307202063693 -0.03683054334147284 0.09684680706850557
1.3006425330485456 -0.058100567543859505 0.07993298470351995
1.3060507943650492 -0.03383176582935654 0.12004924689529783
1.3005753418920278 -0.056283856093830575 0.11087889192739642
1.303137631517444 -0.06499942110627899 0.11108011283141295
1.3081586661875235 0.08371975794249131 0.17093218678797406
1.305646519216225 0.05586687291610337 0.17387123578076746
1.3201040253213563 0.08897466892008143 0.10192094594321155
1.3068878006189095 -0.03873027222322545 0.1196785908291016
1.295933134973808 -0.15745412341355625 0.09265535910643496
1.3075973191746755 0.09329742795762286 0.17735774853905006
1.3142399672789224 0.035753592735474626 0.11328703990013889
1.3006044246314161 -0.06439128081191248 0.12925391824211108
1.3233429900640914 0.07705136471927077 0.09526858269972927
1.3042563141308108 -0.05349511754154479 0.11541358986127204
1.3109734240764226 -0.06454356170203113 0.0795989876183576
1.3030382237056557 -0.06975950243562412 0.12768787697132744
1.2982662726699061 -0.06886117328273578 0.13226212492363842
1.3109235321355754 -0.05358706663353319 0.07942271268476464
1.3063876276440851 -0.05878046667714232 0.07781517836769858
1.2981256225251059 -0.05311500488417353 0.15512809970651098
1.303668642224551 -0.03532487696016284 0.12402971964016807
1.3190683288005545 0.04858147041656924 0.10770732988050113
1.2968570133759272 -0.11811905243377385 0.11363194301257185
1.2965408639417149 -0.06847321016607921 0.14263557452919784
1.2908197124635166 -0.15927099547677415 0.10146092626562986
1.2958120404641136 -0.1699975747239577 0.10699499080044106
1.3059916260331903 -0.02346650749643464 0.09274380604742483
1.308069412263194 -0.0698861048024817 0.07910091436717437
1.2973204568566103 -0.0658126566081716 0.12222521870989578
1.3199102239631912 0.09287921471791183 0.10539909114608825
1.3160654106020786 0.09576941379688897 0.11615215981726745
1.312973990619085 0.05664521226464592 0.12420172461337131
0.8722310296297806 0.12500743871714626 0.21875188843622873
1.3078436449630289 -0.0686737102694428 0.0825931778611011
1.3100635856174563 -0.024222010391681925 0.1051830859938967
1.3074013867537104 -0.05286464026172677 0.08060509213844025
1.3022264141354896 -0.05275373881343981 0.11353750245745697
1.29576578386569 -0.11883764367601923 0.1147127287481311
1.2907633019776341 -0.12651345766399302 0.11377714517019122
1.3060045377666256 -0.06961434728674298 0.10942899357921299
1.3108741416212695 0.07684681402962923 0.16260319421700942
1.3178670361645288 0.07652325288435513 0.12363210406259384
1.3149726768122179 0.06603384839114845 0.12517482116442302
1.3094345460215493 0.059893602259397216 0.1535900364697671
0.9731659359493463 -0.07643743059791674 0.35537051683667187
1.250153017120951 -0.19016031201460493 0.10791369040656473
0.6670628958811022 -0.23941122603759446 0.36230712625068406
0.9764322284385756 -0.0679237406944253 0.3393301951759966
0.9735336069606646 -0.06322224008771116 0.3439364874182047
0.8584866774228388 -0.21896596623015263 0.27157941529911866
0.767379417918761 -0.23040516660982568 0.2044458288161124
0.6385572984417109 -0.24796427792456832 0.1878165503436655
1.0536124911180877 -0.17861863258557875 0.14428979635812134
1.244973280950589 -0.18818375126760145 0.0989100754331842
1.2295511555368677 -0.18898968474548816 0.0818530409471645
1.0683240951229607 -0.17575496993933548 0.09621389708648387
0.9693824846612102 -0.012194701316222911 0.3057707509672376
1.3164721928836087 0.08960133457470754 0.120547641372859
1.1117032573400252 -0.18136582324805417 0.09331417873801406
0.8372423004045544 -0.21729679562247028 0.20834816520324573
0.8332320162848532 -0.22267868503682386 0.20420218252583844
0.6125374604018887 -0.25100091705793837 0.21884397855443183
0.6124473916594297 -0.25330465862306006 0.22031547741783442
1.1725521202517086 -0.1916785689029723 0.02578825732569534
1.3132645672996972 0.12279545037427031 0.128949137087762
1.2761564961198673 -0.1895260387791744 0.10704186634725144
0.8555513264507866 -0.2246759139590715 0.28918509660387315
0.9806831346197242 -0.03767389969238977 0.24547080909192864
0.6026223146549654 -0.24999499273801895 0.23660995965656895
1.278494522724742 -0.1924107456705677 0.0949214074982816
1.2691494362768196 -0.19286005519062144 0.09750586174377585
1.2071223463500047 -0.1860872242206213 0.0717633125812247
1.2043745289043528 -0.18597302432586815 0.07654970313440224
1.196172318900409 -0.18423987482544746 0.07502925250491721
0.6914604310252628 0.05474604357035728 0.33933755987832015
0.7711485785504735 0.05401094834359643 0.2302950251361402
0.9138076887879478 0.12280139697965708 0.21021207734385783
0.8396424412222174 0.060007876584652564 0.26340738490512194
0.7583894041403099 0.06272129930349557 0.3424108971666726
0.692676891814159 0.05333775970769672 0.33115039267061164
0.7723346403553109 0.05443063060637732 0.230612067736379
0.8710392014197197 0.1224528663595903 0.2234603306666223
0.7678616648947383 0.08375188058028549 0.2033300294053575
0.690611954639273 0.04656286035321422 0.24002338949647495
1.0027974866869513 0.1948327455515102 0.1013392676510767
0.7764900247803652 0.05446850397981562 0.25201182430411073
0.7485032157761395 0.0636320270110935 0.2359755140557649
1.1126906915562387 0.20815588379428362 0.09867751537034408
0.9295395704474814 0.173938646311397 0.1514529252121104
0.8296961443514235 0.055823146954754765 0.278718162287543
0.9858089674369097 0.12924762690597724 0.189057487015603
0.9198985796619468 0.18380219213331728 0.1279626038723647
0.751379022346427 0.06044938265415922 0.2288616346898671
1.0215154260775137 -0.2126898452579269 0.19369127936967878
1.0185753115533203 -0.20156372307490145 0.19786252140909788
1.2444430223832939 0.1603994715772732 0.14788435086644824
1.0350050536015374 0.15555384217912938 0.1786727866520259
0.7611485036831382 0.06275154942655004 0.44168924688998246
0.6776476967737679 0.04559416695397722 0.257075433221452
0.5803080187544438 0.042669780770118404 0.32957030362188533
0.5783344038883698 0.04351772830780298 0.3410311906994643
0.7249028861541333 0.05692238753746626 0.35415129820179914
0.5838624434698971 0.04301994494383887 0.29825562068134204
0.5702343595421908 0.0448335929910928 0.4015156105331883
0.7669486925198896 0.0576627203211455 0.26952372317608564
0.6835808263222489 0.045436284189218856 0.21489834711938371
0.5772328324557208 0.043596769583750916 0.34172992858459494
0.8198262523498414 0.043795890764126266 0.5641331267457801
0.6936096078590666 0.054388134707012536 0.3724794411349137
0.641619698363634 0.01864799038806808 0.5899935738238256
0.7447385679832976 0.05283722633254584 0.26785917509432977
0.7697539233045063 0.05264549335886315 0.2262488420100066
0.7276021279036087 0.04916649024651365 0.22083890404850592
0.8523398148111809 0.058483767108374884 0.21699899526574917
0.6830051886529773 0.04425377154411825 0.22064750013599088
0.6323204924442294 0.04065515077993398 0.25246096145879093
1.1686084005053488 -0.05256041537744682 0.22104379946889452
0.8112883372765793 0.058263397978317144 0.2444314928982827
1.1718818383227898 -0.0997178579214415 0.21884893014152595
1.1735063349595691 -0.0647698225939477 0.21675149425893991
1.1699434486712335 -0.09545092176055459 0.22057941581344664
1.179419783516309 -0.18502648771191943 0.06365120657629353
1.183364882185657 -0.18447319486288904 0.06770358310368962
1.282858688625879 -0.19627387677001273 0.11216848264340751
0.8740720798540309 -0.15699273264777602 0.013678926816154013
0.8680562149262556 -0.15881576285570276 0.012351615505103886
0.8969797513877182 -0.1598534807522487 0.017706436700372308
1.185366953007943 -0.18669147454189883 0.09483100969465497
1.0926899150383917 -0.1787961062419967 0.11280053079856156
1.2103269633746692 -0.1851359553936902 0.0941705055832891
0.7984165926079214 -0.1429734263308955 0.03132474085182824
0.8608143621053017 -0.15891847694874706 0.014883490476881867
1.247076765290828 -0.1905496227150909 0.08161573300176261
1.2290234041022785 -0.18847326241681372 0.09619194400572795
1.274585652122994 -0.19244443526630306 0.10334392395396552
1.2047254021265417 -0.18523724355500804 0.09438466172511006
0.639033026872653 -0.2497193178274273 0.18022260207332863
0.9334168511771352 -0.1667852952749609 0.024857494102122013
1.2806432608103222 -0.19228333632037042 0.09288028808410154
0.7944924284966675 -0.22812613597143638 0.20170214813942522
1.2551641486168421 -0.18939101401338299 0.0793025426802556
0.9015006757612909 -0.15918927862014165 0.022005889197236117
0.7889141835827047 -0.13928538711179783 0.01147363525977918
0.8756474993680925 -0.15592094908558884 0.04629190198602551
1.26661547725098 -0.18932344678695934 0.19372855729909944
1.298589442075695 -0.06909417209379942 0.1269439480191732
1.3056710891167427 -0.023926425321750155 0.09327184736923311
1.3016025141616296 -0.038900247985894865 0.11313155849842538
1.3159355411279137 0.09536357169012355 0.10411866713403306
1.30082116625384 -0.06569853897871036 0.12953582964530863
1.3018331703705712 -0.01980467760760063 0.09134884524465914
1.289533678742032 -0.17841597791504604 0.10358123973415712
1.3259891432785196 0.054335978511940386 0.0375950777905536
1.331052799204599 0.09104284969790566 0.033116954873144255
1.3132945275355326 0.06067134616392211 0.12475493911450464
1.3111244788219523 0.06008903325382109 0.14148407981654287
1.3074329766258046 -0.06839819988943496 0.06820227530325962
1.2890732438205958 -0.15115587699520106 0.11491472529632851
1.3098136244866794 -0.03539208770365487 0.08987891333919773
1.3067675836056623 0.045087788825705744 0.16598862251850655
1.2891084690351136 -0.18885868706160558 0.09485192858316971
1.323639207793292 0.09213768321140758 0.0770514195627987
1.3118021567923535 -0.058828231472584314 0.07260879607754678
1.313105239016238 -0.02854491829022776 0.10932532364182457
1.2254413382487428 -0.18737726935443533 0.07437451479877488
0.648564330602305 -0.31973996163873863 0.029537304093535388
0.6256584140615118 -0.31458448197730604 0.042949894089078455
1.2362355474006677 -0.1919524418119316 0.08400508531400064
0.8228774328529056 -0.2245847483460537 0.20943488187461234
0.7554581899372224 -0.2333732043245309 0.20329648083583685
0.5903208173202614 -0.2503931410812932 0.20190937832714617
1.2020061659937369 -0.1855457462344674 0.09265348659169526
1.0680127092408895 -0.17871495349022304 0.07411060774232148
0.6572560582670732 -0.2475766438690794 0.21430934329887386
0.9742055185258423 -0.022937845267542167 0.31470871040288273
1.0882678343717487 0.1995525012182391 0.09428686788000107
0.6737819488545611 0.24448972105537692 0.04427386777971387
1.1682970146232776 0.1391371685601417 0.19572740018802648
0.8044866116021439 -0.15064479799310604 0.015086250917075605
0.8750172062058326 -0.15797675089567775 0.03087919007213591
1.0987159338536259 -0.1821459959373879 0.09217058149338264
1.1343460503033356 -0.1834461009411843 0.09041308146655602
0.9010833008440784 -0.15967454982494544 0.05086763463098576
0.8705384016617188 -0.21860537786872847 0.32040573072878686
1.014919285284961 -0.19098592648423285 0.18336913196711357
0.5339099553679034 -0.2744532475024002 0.1361925568666571
0.9764467698082697 -0.0544828925711105 0.3193750484733968
0.5604111002089383 -0.2607231702823025 0.1453716554598703
0.7445045271452031 -0.2387298813856109 0.22727220657181135
1.0969148097177168 -0.17753255836696802 0.1830852148577513
0.7360887094347177 -0.23754128110890882 0.26261343865548525
0.6479922655971393 -0.23470330090332148 0.18299607062047762
1.0791270792393561 -0.17516400742139915 0.16526213380823762
0.9265044982720525 -0.06369127760824433 0.5061165089736193
0.7373188967751787 -0.2397364481582862 0.26550808006022564
0.7169430532045311 -0.23795633692836837 0.24989149516600406
0.7892814785241171 -0.24608030872230913 0.286782135261916
0.8136788256333247 -0.24050327036596109 0.4712253698889697
0.7943682000710908 -0.235273532567696 0.4349421453693765
0.7970181139845778 -0.2431557070817334 0.27615020027437964
0.6395456728326891 -0.24484929089413932 0.43160054488149413
0.6174872298248033 -0.25281163097644743 0.4478593004791698
0.38218583674491313 -0.010250853754287692 0.5414509091206696
0.38239621651809586 -0.01382009111902871 0.5587693043564883
0.946406055013064 -0.08285806426626774 0.5010695568191927
0.9020261707764448 -0.20718006073641426 0.5107752943068569
0.4007192511683222 -0.0012707164627724088 0.46428550120243983
0.6623723013016587 -0.24442495868366798 0.365813476696502
0.6764883986105659 -0.24091630480967652 0.3683144355881005
0.6462533810306539 -0.24853013777628696 0.2539961101537642
0.78521754176451 -0.23461421934436544 0.4017379618650416
0.7871521707170075 -0.2370239342750491 0.4120514596597715
0.9734417832253115 -0.04616096698046057 0.3498619075336151
0.7819172149487983 -0.2286524928134579 0.43126186259208765
0.64104838549828 -0.2442449152162265 0.43300124858511424
0.6712822121901567 -0.24702631257055785 0.25341876450033674
0.7569541333445073 -0.23730028297755545 0.3787212300586482
0.7801192247287716 -0.1934846916347137 0.4765842093520085
0.9726598085343454 -0.04729461795956036 0.3407800386806521
0.6325189319979003 -0.24782848534938573 0.2540407527855084
0.6392058936727238 -0.25013545484786626 0.24696270974772538
0.9641192609717422 -0.034493061254482704 0.3940403123181575
0.8143215291024788 0.04076484175321138 0.5285124747220351
0.5797071217231604 -0.2510836367676532 0.23003606966678092
0.6943711494184797 -0.26477248732431846 0.2804114483779401
0.5485276045746232 -0.23726103068112891 0.509615964804496
0.7188908446037345 -0.22985821994045708 0.4138559370856747
0.6738565360525612 -0.25096755652337066 0.37469634189093526
0.9539489517936772 -0.2201756734303224 0.516870415967297
0.6383427505604047 -0.2492732519103118 0.1826940081381565
0.8480593871424205 -0.15518546603673755 0.03745248461790629
0.9010194943167136 -0.15985448360533105 0.04691056440296704
0.7637536652778252 -0.1461855334145188 0.03391787408561919
0.6648103625014983 -0.24662702034798656 0.18103787462054477
0.64306606322166 -0.31515682903490116 0.08545910476156937
0.7630328019465651 -0.1441559468107858 0.033859767367765414
1.1360931457294328 -0.18358015419305218 0.11023501323978646
1.0974248858667295 -0.17757223374203868 0.11736681860453135
1.119933547230275 -0.18281076217435377 0.11108009716183354
0.9289979044263745 -0.1621932310108587 0.0585217893428176
0.6397895541666543 -0.31237375503557274 0.08462965124498556
0.8861063168422874 -0.21608000577240638 0.2122411311818908
1.0905842996353527 -0.18056496671389688 0.11136698365649433
1.1122757610934144 -0.18239517358919421 0.10971291852336496
1.119219766548909 -0.18224985390972925 0.11029812247086745
1.0964092464075748 -0.1771384214360232 0.11938138591639813
1.088609556559561 -0.17631951354638353 0.11753169391910223
0.8193549740794523 -0.22483984909887766 0.20630088764435683
0.7631468138063653 -0.14315835870711346 0.035271142054964955
1.089768854722763 -0.18138226063685714 0.11118491881330872
1.1112818083321656 -0.17872093926955834 0.11799204265785157
1.118946363727332 -0.17567452231863534 0.11787108917437195
1.0930795234608865 -0.17815435861718676 0.13437255088755684
1.23717772787154 -0.19444550323550658 0.08850312426684237
0.6346270545336452 -0.2505361416630052 0.24314251329586867
0.7898965408551888 -0.2285865865624519 0.1996905658824364
0.8619025830562919 -0.21377931977526998 0.2525401085043999
0.8587728666212158 -0.22599377259634146 0.30887608553674895
0.7161919162458474 -0.2396780946445567 0.22274509271437104
0.736568825347895 -0.2354667384818434 0.1621167007850115
0.5910490766930039 -0.25187606306808696 0.21860694482666965
0.6074343171356915 -0.2520239838977343 0.18403546516202063
0.6687967035038582 -0.24865267388728718 0.19287411080335382
0.8346794466742793 -0.2219947862433962 0.2076825371394122
1.1336534548933344 -0.18702567533159353 0.09152917859931975
0.6237341897097437 -0.24771950342457671 0.18471637106578065
0.8297542471518824 -0.2283666796849868 0.2710459601376236
0.8853933509790508 -0.2267034165087427 0.2827249364214559
0.7627043675620939 -0.2333862100754427 0.24433747542181194
0.5030337072593021 -0.26787509538701215 0.13664838493174614
1.0542724938029124 -0.1777177727956154 0.13929129454323608
1.2495177096932792 -0.18918629095836792 0.11323812730800498
1.237859667967541 -0.18977369648177778 0.09472551425126507
0.6435394725548491 -0.24559986374796416 0.4124987321345017
0.9729931318275931 -0.05857684832747578 0.3517418496539655
0.5740979763985976 -0.18598214402108582 0.4230557978716085
0.9153753361906212 0.04059952769041697 0.6306332548114852
0.6430270146297659 -0.24699923553733427 0.43562709402462474
0.7140008076175377 -0.23864818019855782 0.39961680223922613
0.957561918057813 -0.013571463861199229 0.38028981763608627
0.6484347745197283 -0.24683086590655456 0.38396514882628097
1.0692157568698093 -0.1772090912391704 0.0920632918831501
1.0606388558829707 -0.1770629254024172 0.14508587367055803
0.6750803302046222 -0.24121932313634176 0.2230622293320863
0.9701164477608586 -0.010935492935342572 0.31299752965279737
0.8838649402032246 -0.21473041623682754 0.21774732736971814
0.9770978094936709 -0.06882351928340924 0.314115867535417
0.4510015839169341 -0.03023975175159177 0.0014497068855099937
0.4548762321572468 0.05463438998225856 0.02997126526055527
0.42173287796018855 0.019092142657797906 0.1251401130460259
0.8180666839385324 0.058440142999292455 0.2349975129263573
0.4024941444282959 -0.009059476044634862 0.27062278747602875
0.5390129105991477 0.26062862004013176 0.07523011300860727
0.5321161019168414 0.2605700941610287 0.13341634614311104
0.4375537001524634 -0.041952877925054644 0.07773796651514697
0.7260485204440883 0.05086644374295046 0.22645671465048345
0.8696706203538938 0.21443300761959172 0.054583213135899644
0.9892504458239628 0.2150155242342251 0.056959316818745
0.5101387019736734 0.2528250127972651 0.12327076356135791
0.8167910548177773 0.062115250897980534 0.267913141125824
0.4404617233780215 -0.02343346035345517 0.04838761421487625
0.42882257916505395 -0.00718114103552292 0.1263393372975692
0.4587091052988477 0.2543925818520414 0.12218303620211923
0.9972027573754474 0.18733268940100878 0.10090453083987594
0.6492690856059298 0.0408786851650329 0.18812224816841017
0.5568702766884144 0.2606777128324289 0.017188608026945662
0.8005573078688428 0.23576259581071746 0.030075663833386335
0.44804275991492304 0.016404671700506968 0.04972686182804331
1.1187109439662493 0.19023439778606388 0.09260028836959222
0.45249611706207205 -0.026384208645976903 0.0016751271289748432
0.4756019147578421 0.256682126778216 0.11797070852548242
0.8198260643148885 0.06076151675864727 0.26734345789672886
0.47705865287743876 0.2524411237712556 0.11596026231300094
0.5810190415898333 0.03702637782756657 0.17261166797890937
1.0239765528982474 0.18134435592426001 0.11388003946339875
0.7212268655024445 0.053791194244530605 0.2238222822814553
0.8958380031534574 0.21501522651221627 0.06048746364952473
0.910575430625201 0.20519271931877547 0.051262178970995276
0.5718601724236407 0.25797751523860946 0.015171965475155536
0.4670476093045153 0.24758436897172942 0.11163885085928893
0.4440081879471336 0.044259921854037376 0.10077307090340071
0.5179225655464812 0.25576755610626734 0.12613159784851735
0.6540897376944912 0.03919831472546598 0.1809095407651622
0.4518803025911886 -0.03320416783475544 0.001449673097979387
0.6827204410559062 0.24554486352422877 0.04351344659522871
0.4434017125455796 -0.02708667001491527 0.04833856843131734
0.8195949693577234 0.05867390178495757 0.23519576444507528
0.4226766567281608 0.018592543581319454 0.12629051872291175
0.7479482619516915 0.05192567205463394 0.2667200593494101
0.44522038661042984 0.05022493116183169 0.10852347208937463
0.7085563809117517 0.04797543376323876 0.1945260448736832
1.1812237908548298 0.12659080270796963 0.20098612670820337
0.4829713806335256 0.2515052268017275 0.1190777094673976
0.4502142188906504 -0.03255960556174364 0.002106798945958943
0.4407679382988867 0.04781941959582525 0.11192927084410709
0.42457386672502295 0.016569651805390162 0.12616732448957624
1.3053129452097068 -0.034609255103216 0.11527772677298209
1.3036063399768096 -0.05359048260184496 0.12337370486330368
1.224441869795541 0.17219617341122628 0.1411140583683128
0.896706035174553 0.20709168430853175 0.07921784076874516
1.2973027815710338 0.16477559336750147 0.16862814750084354
1.3341454727539457 0.06825919505047295 0.026138991480366913
0.8004610339729368 0.2374528733418675 0.030003979424972238
1.0130274656234164 0.19581151449030898 0.09849129808861434
1.0262307159141102 0.24681088719280453 0.006465507426391515
1.2141472068352641 0.17557218429549692 0.13914008310191228
1.2335664539219806 0.1712316011113746 0.14351965219961116
0.9483032650099261 0.13722723486479715 0.2031004230582365
0.836549203568012 0.20855027143849902 0.05257952051214465
0.9585001497946735 0.16505037511206666 0.16232017027367363
0.7340888323535495 0.03776023124015904 0.19622407884664206
0.9350662937843381 0.22464288248567144 0.05037903755795181
1.203717033352234 0.17619852872374508 0.13724569362934425
0.7595228161583236 0.052427337556897324 0.19487091664695733
0.9222238825683391 0.1696086087542188 0.1455146403720029
0.7139353087755964 0.04775310593575455 0.21912582727931174
0.5564990330129902 0.03011872383760994 0.21508265271242522
0.7223768872746348 0.24293095830423006 0.14310412629276925
0.5710455423291805 0.25189956743720465 0.09142638615837839
1.1829840487276329 0.17580556701125616 0.13975230923911042
0.6486367867375051 0.037698438253748634 0.1876351436228152
1.31454132463017 0.08709864419458402 0.14813985902833693
1.2970736296417158 -0.1706425502821265 0.10332138326398166
1.3092689499063255 -0.05302924135865794 0.0792294440922996
0.7882282947526917 0.048002557805200574 0.26070115452322895
0.6908691237765794 0.05070735442057739 0.24039292518774324
0.8088705838516574 0.0544454266067369 0.20674024698148408
0.6880753631240921 0.0480963363205853 0.23935232408858553
0.6290274989916824 0.015692514779307554 0.5866191612366549
0.8247661185985677 0.05702793390698924 0.21081985332050301
0.6989086208679112 0.05439388152526181 0.3346170677413589
0.5889098030333884 0.030788901955565162 0.17314759893395149
0.6526858060575123 0.038713114033769536 0.18053331416348506
0.7001347341177251 0.054468312027467825 0.32206313348233095
0.675509739358823 0.05193625685552661 0.3490978275023373
0.9068648742204886 0.03024147344662964 0.6308056828633326
0.7221624020716462 0.059124143644986304 0.3845945018137762
0.6842657749774972 0.056387435931137375 0.36835317078840646
0.7999871232132065 0.0686480670027354 0.28906403343333764
0.725484917011805 0.06040066201437311 0.32449605506012347
0.5779975079310162 0.043086560243313254 0.29394260028740504
0.5644706494863101 0.04994491577774296 0.44760642480662227
1.316803259757421 0.04859618023424206 0.10890380412085765
1.0183905358728964 0.23715475959355814 0.01753316836732899
1.3117889943456476 -0.05464183694987401 0.06568876507855226
0.7307925796284849 0.056605505550416435 0.35305333077241485
0.5310880521507926 0.0305711280995975 0.27662805976812166
0.7907438263531432 0.06443626425700888 0.4737296507314035
0.6261725016228539 0.050705289953489885 0.2709837519073588
0.6695801824744478 0.051172176824248794 0.3534477967645273
0.7592326782259349 0.06395375481557641 0.3327640146192792
0.7940365690924196 0.06864718950628834 0.47204291452520053
0.534853138691858 0.26226687456763464 0.008569786018436942
1.0989717867462616 0.15943207875312737 0.1406627744812532
0.6248972485720046 0.2575925136724617 0.023735881277405335
0.9297244714845405 0.19202423982479644 0.09681187957599668
0.9417555745569146 0.21686824829513718 0.05199990668709731
0.8417343927520093 0.04765423480706099 0.3020285420121134
0.5533665587319376 0.2617775449417632 0.09274798199033807
0.8267145367809476 0.04266436301303678 0.2924092379244847
0.531902306175347 0.03609872305680906 0.1984327530734724
0.657620093935968 0.04149840527858473 0.2305807285775554
0.6306980641919324 0.2537574154505844 0.04478712877074198
0.7159927245523647 0.24292589703008005 0.11855639039515697
0.7615435024409507 0.23966465014542138 0.06720526697402551
0.8145029828320673 0.05820578485221484 0.2680695862066713
0.5363792930482489 0.2658950873325381 0.11748307904897715
0.6305786619968146 0.04627697279424092 0.21506247029414283
0.6121583819367586 0.26702505204308125 0.06931316230086892
0.8338183092681248 0.21785270529126244 0.06707652570957823
0.5856819323528768 0.255030662795269 0.019340664145966358
0.9807147244918184 0.16726345249071173 0.1454834109002352
0.9903175441819059 0.21486893531882778 0.05819117296941334
0.551850307549735 0.26458548656361813 0.09182048391537467
0.6313202091728982 0.2465791184437247 0.09238461227856831
0.6252978257000876 0.25903469475278484 0.04689804049162216
0.7037105948178137 0.24658991478393943 0.016146159876114785
0.5552286688709174 0.2625295280577351 0.018079078885758992
0.6642832378500856 0.04550975884708075 0.216404272048754
0.7162814208834476 0.24047200955503456 0.11932790564186568
0.897056720361789 0.1983262939509487 0.05373677379523345
0.8581321061799088 0.04949311871195761 0.27462755590377697
0.8992774131560282 0.2153151736013168 0.062289034368447016
0.53498601672527 0.2676899122975236 0.1170399981867396
0.5813493563238339 0.258566926468184 0.020648699915642554
0.5679826409807163 0.26596350071624997 0.015062153062637695
0.7464188483227829 0.046543359561636244 0.23793186104532715
0.9485446392111854 0.21142173753528937 0.054261497083601284
1.1952703779094662 0.160554412378497 0.13707976845295278
0.5520394080340765 0.03246003713676626 0.16684394651069923
0.8318713326870508 0.053989465350222865 0.2042289775066326
0.6940117519450908 0.052402023351357574 0.33438659956737027
0.6985797477352165 0.054140751222048866 0.321056237648488
0.5980906722890751 0.03579295471895705 0.17847516191648438
0.5615653841067285 0.0338531077965154 0.1678611215886363
0.5878835082602336 0.042668268655705166 0.2708494009334821
0.5817139560975875 0.035685437899823036 0.1797497568449984
0.5329584358277017 0.03295944034350207 0.20130658527675394
0.5873247310584091 0.0394096268386237 0.23955563688145354
0.8530440683882645 0.05956915578288635 0.2116863497228163
0.5946345271756925 0.04250813730630121 0.17905988794181482
0.5462348943934074 0.03135102069519924 0.16608234227296848
0.5376601244693688 0.03409471704146583 0.21600477612165037
0.6276120345442564 0.039582920634733565 0.17655610852592218
0.6120261306865231 0.03992011039670107 0.24475644863612445
0.5511973875148044 0.03677611113999113 0.2869983754577987
0.6246912249418983 0.04557561025455881 0.26766728542485296
0.7103161373580136 0.05663505054239737 0.32344572315215103
0.9705334466081652 -0.05114066530005168 0.3561412407696203
0.9941726994654303 -0.13149942381534885 0.25062392264687006
0.988784808602162 -0.06723360540839174 0.22168316531763388
0.9772419696242594 0.0055579865961550845 0.2479146993753094
0.9816756457796671 -0.09424657355654364 0.3235865299927454
0.9763676070930813 -0.025845404281810147 0.3265932088902801
0.974549309098137 -0.06437108664144553 0.34009960286427443
0.9739005885104888 -0.03880345307647337 0.3179631880292355
1.3091206530067723 -0.06723373859981674 0.07406178133287433
1.3066541358507209 -0.0670876511109606 0.07629325479774884
1.2962593129388438 -0.11780535528873948 0.11255231682588906
1.2924482205126253 -0.16898318883115593 0.09149067060791527
1.3136148137387096 0.05958564409782241 0.1374507927542652
1.3098165076892911 0.048425675623267495 0.15166750443257548
1.3192442041598724 0.08853808309851008 0.1120227007113499
1.3094121071838316 -0.05710499689853643 0.07248075210938332
1.3192729108293548 0.07302548153326516 0.10102821083017322
1.3232067274015265 0.05308118209701318 0.06624538771320765
1.2966417760331268 -0.11741559017045056 0.10405283923092412
0.9849101603618493 -0.055898474540382104 0.22852514614157826
0.9669526343209824 -0.017135257026443362 0.30743006540946993
0.9747288824781961 -0.04795493795336814 0.3237996676119046
0.9798491996034286 -0.06452168696917226 0.32004451558418623
0.9978986120579663 -0.21339793788196637 0.21321333456691605
0.9956055258068446 -0.1269417072693173 0.2172182753600378
0.9847058290463195 -0.057915505893611385 0.22605026143012097
0.7372811017496375 0.22961446396312724 0.16142250707791028
0.9936970963911236 -0.1350756919245022 0.2237279514133963
0.9870385279941942 -0.05605765788023165 0.22930740288497375
1.3052122838315654 -0.03500281225972257 0.11978803500650326
0.9776100167054835 -0.0709870259475851 0.3124531684640317
0.978866591617674 -0.039425472700803876 0.3135464663587513
1.3145146236668523 0.06124805719938342 0.12026192226186438
1.309128675831431 0.08988142830669332 0.16667167515464598
0.9931089857366402 -0.11777092922277177 0.22074780111380576
1.307942551348276 0.07742622806753907 0.16879891457727325
1.3077454907175934 0.07448793121455743 0.1751522395672609
0.9829204998464576 -0.018905948880437284 0.2199762310235691
1.3001569014434153 -0.05261116914516162 0.1358118487652682
1.3197691977484851 0.09482217205186672 0.10870870218760142
1.320476961311357 0.09470849708802387 0.11176715337551268
